373
23.686100910144162 -0.5421823241342318 -2.6835693320976564
23.65899945609972 -0.5519419233353116 -2.573584436999509
23.640295497567568 -0.5572108859767342 -2.5073115950256124
23.625401434967927 -0.5625698834096058 -2.456270787263131
23.59884002952545 -0.5575624786538915 -2.3818195543961433
23.581499401617094 -0.5600437830660514 -2.3294163903493335
23.552851457567858 -0.5594240932488441 -2.2494934796151504
23.524581848409852 -0.5692289727665036 -2.1642065743247603
23.504193228379073 -0.5624553307867028 -2.114236570565293
23.481865852771502 -0.5550361702277575 -2.059510986846984
23.44689475923895 -0.5592677712160583 -1.9624938106958663
23.41812651708767 -0.5563042199637609 -1.8877023999306868
23.38679908287474 -0.5589230944754329 -1.8070568636355588
23.365808301813278 -0.5444116006325741 -1.7574827206023045
23.34185709262795 -0.5612610854144267 -1.6800564611456288
23.325540155842056 -0.568310535682838 -1.631135298641711
23.308813005602435 -0.5716385436961566 -1.5824246594424665
23.28626886161467 -0.5725627274810554 -1.520205764010866
23.258699697677756 -0.5807781997009416 -1.4364828236467346
23.235902551726724 -0.591246712478414 -1.3660005096680123
23.214588118216387 -0.5893507220568033 -1.3067887505293747
23.189381163889415 -0.5956174781341268 -1.2294192885943218
23.16343432855975 -0.5854508823487166 -1.1613288120708685
23.13397426546378 -0.5706538902188365 -1.0838841135291961
23.113643264114145 -0.5658558337836492 -1.02463100592413
23.092353647014388 -0.5613910449198949 -0.9583435786892309
23.06622871312714 -0.5566927839860467 -0.8733117551705938
23.045000942022696 -0.5514972259550328 -0.7977483578255935
23.02328483242591 -0.539257979890114 -0.7227008393850269
23.00768533361551 -0.5457163835609835 -0.6285959946266786
23.003249547629213 -0.5483171270654417 -0.574143992269498
22.992969404276728 -0.5281426930025441 -0.5100626505925465
22.989440612836407 -0.5108247704551987 -0.41006553179327554
22.993899543578014 -0.50415370649121 -0.330626656873827
23.00326845444799 -0.46598899590689236 -0.2208100052326074
23.011060562745886 -0.4511105227904455 -0.1634258917160718
23.021984982904137 -0.4509007467679176 -0.10589338755118227
23.0322630196895 -0.43985327497906024 -0.04352074241200299
23.041140305114702 -0.4313583293468417 0.017718781171227604
23.048870170432593 -0.4325832149814204 0.08404196612929127
23.05182070712922 -0.4194531787721356 0.15095826420165892
23.046922490899387 -0.4071651528022189 0.2500436570680371
23.03152917949615 -0.3952915877013181 0.3443521584868918
23.010368390643087 -0.38389103570538197 0.41736504621533843
22.98667982013656 -0.38213841253797565 0.4804235136072439
22.96533823889863 -0.3822869495686927 0.5322987330058275
22.941691444118277 -0.38830730140441094 0.5855702082165637
22.911470969530097 -0.39425568567002056 0.6474903999360819
22.883027701624613 -0.3987985182497775 0.7040031766838339
22.865384087957676 -0.4011614881079595 0.7372122349555115
22.846105444543348 -0.4037436421463143 0.7735008587585721
22.81968734722859 -0.40799497877962754 0.8198179994588006
22.79014206775234 -0.41293870289351275 0.8701888548372505
22.749474999246825 -0.418830067399548 0.9391225548659641
22.730626062423084 -0.4212468360683621 0.9691431328618076
22.708524699389383 -0.4240814479224184 1.0043426925365306
22.678282511933922 -0.42488774039657784 1.0507496513108974
22.630367460476915 -0.4243316331703335 1.1228313073483944
22.592710711983162 -0.4254251296607938 1.1757794792203118
22.54350644566512 -0.433895375867011 1.2440996607738448
22.50514120878852 -0.4435446734235393 1.29650630399059
22.46410059834312 -0.45462655136736263 1.3514411300471387
22.419011699548566 -0.46594186839788954 1.4090261084159224
22.362706753142188 -0.47935197694671494 1.478344684381824
22.330227096151717 -0.4920965495808769 1.5176152581133637
22.28667521198949 -0.5099428894387268 1.5689117897059486
22.224974804721654 -0.5326277915212208 1.6379015984903589
22.167942655303495 -0.547281506730755 1.6969138862796278
22.123848635209853 -0.5568849138881573 1.7400209822951744
22.080408825367826 -0.5681314431776778 1.7799613064197155
22.018847660989895 -0.5842821640693616 1.8324570422686381
21.959617056831824 -0.5980080941021972 1.879523670615292
21.885993061294045 -0.601457200507185 1.9328294902220744
21.831704497684747 -0.6046698321337667 1.9693381997247137
21.777156746125442 -0.6060561974847687 2.003220289787315
21.721815052621235 -0.6057204893229127 2.03494223530768
21.666359261773156 -0.6058037808687038 2.0640393685922653
21.59921697738761 -0.6065800310859562 2.0960594648929334
21.54301730398815 -0.6094126224124174 2.1197705380474527
21.478901217375853 -0.6278371739913355 2.143507119915265
21.407937846185348 -0.6456224950274265 2.165303415919161
21.351326415842124 -0.6591383998578211 2.1794755278040636
21.288448209890202 -0.6845103755898174 2.192986240291358
21.224124001764828 -0.711048622147076 2.20324076473905
21.170543411986703 -0.7313485454259494 2.2099867773904798
21.08447038211654 -0.75178683327331 2.2181349692940326
21.021444034603363 -0.7762883061200654 2.2209000042203932
20.933283256621486 -0.8146352350190247 2.221999999295506
20.879849609456805 -0.8343561688371288 2.2209693363675598
20.820820099334828 -0.8529017428310839 2.2200088845731187
20.761940349632194 -0.8698708989570614 2.2173587212400427
20.71355149008248 -0.8846384167763892 2.2142946753778237
20.656804366199825 -0.9015948390171369 2.209656046963307
20.59806549459271 -0.9181975119985157 2.203828990161856
20.53704104978275 -0.9351512591410209 2.197108581827564
20.474441673429986 -0.9565642923734838 2.1893949734150304
20.41150099479954 -0.9842084752249791 2.180462496405747
20.3461580106218 -1.01251276005679 2.1688628822944835
20.28114069532249 -1.044117247591129 2.1585888747688013
20.191372321869057 -1.084881408703203 2.1430393278828035
20.099793196359162 -1.1211218321373142 2.1263435959686934
20.026509099114552 -1.1438680780660322 2.11285576070192
19.942966392872258 -1.170446651825305 2.096710744607101
19.854103946798173 -1.1894633728718231 2.0791426208130055
19.763554759279664 -1.2152962495157649 2.0600624064612534
19.682313444037533 -1.2266522885604711 2.0424205665796693
19.57617174332611 -1.2287906672759705 2.018435643122908
19.4847970244447 -1.2407445003908606 1.9968779050508214
19.382129260477004 -1.2451532275286237 1.9703312918345395
19.269315200570553 -1.2527083486208115 1.9397262120317613
19.190219684722447 -1.26025456254039 1.9178192082873204
19.118787375784446 -1.2704017960273388 1.8971454369120533
19.049325171799342 -1.2797742285344818 1.876195691135944
19.010960980631225 -1.285970913701111 1.864268905893864
18.964900255592603 -1.2934111072723837 1.8499501652514176
18.88593219197153 -1.3135459392980549 1.8247665972912452
18.813297094114137 -1.3279273676824257 1.7993844403055999
18.728367354574516 -1.343432678343726 1.7695591435594729
18.662721540333877 -1.3451812401719785 1.7431889629178965
18.60836999093527 -1.3461282010861924 1.7199419680649655
18.559083613820594 -1.3427042436030625 1.6973887729400126
18.51211418135452 -1.3425529873367488 1.6744070485752287
18.477837354043235 -1.342442075384307 1.6576352953713132
18.428295351453695 -1.3411330392281444 1.6308839953222396
18.368966809534463 -1.3461562024353295 1.597079429827068
18.31496402123262 -1.3504428624016152 1.5636870433225738
18.26703078316167 -1.3557003215514154 1.5307962908321358
18.192727961638365 -1.3626165241411146 1.4750657309955102
18.15069736364466 -1.3636380058543072 1.4397045489485434
18.112910840226586 -1.364556300385546 1.4079140656843743
18.045502507635597 -1.3786577193276512 1.3478965430933183
18.00004234026754 -1.385364347799177 1.3059352169863354
17.952648152611577 -1.3906781602864893 1.261537495171333
17.90252080863742 -1.4013521257744364 1.2148140041405426
17.848706163991473 -1.4139820237872867 1.1655446550084054
17.810823798425645 -1.4242471474415508 1.1320161066227712
17.76210405303747 -1.4443435797938369 1.089122272166044
17.720905856088468 -1.461874349306199 1.0522618142841633
17.684460338051387 -1.475807510500184 1.0190986925406795
17.64740873051919 -1.485005512827553 0.98453562743215
17.59362018823217 -1.5010294303456435 0.9338356871596663
17.535433781065123 -1.5181787677098209 0.8767315589414943
17.479459264395953 -1.5344503714428113 0.821646410515374
17.426369578005644 -1.5546403953738892 0.7685385599184613
17.356714098968574 -1.582465900457831 0.6987377843336224
17.321015598175773 -1.5981820190001566 0.6609801223879206
17.27264457658064 -1.6169966777080864 0.6107918019746483
17.227938987435703 -1.6245118177141196 0.5636002387524117
17.18395747582972 -1.6282792526787215 0.5164418543912301
17.133331175755387 -1.6309166450376464 0.4623135175387745
17.090318252923662 -1.6339902906785033 0.41579233866684717
17.0395251329062 -1.639124180405866 0.3604005054156545
16.991365547239457 -1.6442553557047326 0.30730580606368374
16.944088422982986 -1.6514378541333103 0.2557564502829148
16.897279505441123 -1.6632850424366366 0.2032320494243951
16.85045094171598 -1.6747259088774733 0.1501806399099248
16.80472540276006 -1.6819598086382204 0.09782112499392603
16.75820153678513 -1.6887975558598187 0.04485385703820022
16.719068472318767 -1.695765810101861 -5.3403180574562725e-05
16.66426927424163 -1.6985397522578047 -0.06272383327778286
16.631099539797532 -1.700665716472174 -0.10308546251926565
16.57564193403698 -1.6964254067977267 -0.16704231589297436
16.51687818428384 -1.7002234965227778 -0.23480290459576025
16.479837476691895 -1.7018426392600166 -0.2786780901084587
16.420162696841995 -1.6897602872107687 -0.34315690549126465
16.38270753948761 -1.6974717738785428 -0.38515631613564416
16.33669231166494 -1.7097323401190092 -0.43601913080678223
16.293275862923647 -1.7240793974315372 -0.48360592578526074
16.24759153303609 -1.7397523098103491 -0.5332013827073538
16.20226891275405 -1.7535008140182766 -0.5827577064808587
16.156347614619595 -1.7618796738517934 -0.6330728195322468
16.096485708401683 -1.7731526738915129 -0.6993976160362454
16.044624562896107 -1.7823319722881967 -0.7567663038863053
15.999234422639633 -1.7887067134803463 -0.8080548224293462
15.96057726460686 -1.793345827448145 -0.8524962532633449
15.899002824103485 -1.7991684566821489 -0.9252288324914648
15.846910120852966 -1.8030670502340822 -0.9883581661069254
15.804371637520179 -1.807022918907065 -1.0416810568885548
15.771184383733116 -1.8123691957895778 -1.0844680716102015
15.722581765017315 -1.8180330632561459 -1.1494533187401164
15.683590757643616 -1.8239649735367962 -1.2041137435139362
15.645646313982551 -1.8286237904901297 -1.2593043966298172
15.604489766743077 -1.8296848416078975 -1.323386464074959
15.574383698707065 -1.8342835195243117 -1.3719515509378848
15.541406488795786 -1.8416096146814862 -1.4289041515420156
15.509685582819968 -1.8475810642194253 -1.4869666292144146
15.481275633333237 -1.8524474431438955 -1.5445457143501198
15.454183602422663 -1.8584178240354428 -1.6034107723018227
15.429345154437918 -1.8672926425108143 -1.6631011812453274
15.407096113360952 -1.8797405275070922 -1.7205582337770888
15.386834876192223 -1.8920706402429976 -1.7812845045888057
15.367332998829404 -1.903426193798306 -1.8422112540866706
15.346819983773576 -1.9177657307146339 -1.910221076024003
15.331685686756174 -1.9317981987947412 -1.965586905725436
15.310699234506039 -1.951729128642783 -2.049379889283868
15.296537952816248 -1.9666277593153199 -2.111311836371705
15.277710008694074 -1.989182781897063 -2.203600166919955
15.262076525454132 -2.0002042952511214 -2.2893867711404887
15.251518495939818 -2.00847815217255 -2.3542555936127947
15.24300742940531 -2.0187908481611876 -2.4153004051612754
15.231936883611116 -2.0239090919631986 -2.4976807973858097
15.221482347179334 -2.0191329513685403 -2.601888861473631
15.215089545605437 -2.0316793362045957 -2.707759161763258
15.209623322769845 -2.027906777621457 -2.7934767662005644
15.208400781007763 -2.038862355708371 -2.8576937165234657
15.208525166544389 -2.0504892002386303 -2.9149538581998833
15.21057478103794 -2.074678064176148 -3.0259744349753586
15.214568741754254 -2.101942472766828 -3.1019787388639184
15.219003656985604 -2.1341539878526787 -3.16045610745139
15.226619551558253 -2.1317886236002814 -3.2521321650922967
15.23175910661414 -2.123153466430716 -3.310687868002818
15.237719287911128 -2.118672259387692 -3.3628404960762683
15.248153947820494 -2.119389992988994 -3.4382852858284085
15.257082615057877 -2.125176677869129 -3.4908678591971256
15.269459575745168 -2.135387780551959 -3.5574324841524234
15.282535193290792 -2.1450015982981734 -3.6227967967573917
15.302293202307476 -2.154786820956435 -3.702372977238632
15.321493195337842 -2.1617013139952514 -3.774300847285449
15.33967722769008 -2.1683163661095404 -3.837383094042538
15.361220254113965 -2.176746685236666 -3.900556852329272
15.383035851867712 -2.187089818423804 -3.96415561687167
15.407270415549267 -2.1963259692793518 -4.028917334247657
15.432804199774376 -2.201240211686643 -4.092541060972778
15.460213946617413 -2.205588731248166 -4.159382295331463
15.488767548177721 -2.2121161298352523 -4.2247393321921685
15.518455364448256 -2.21933967146476 -4.290086054513349
15.549499182394332 -2.227092126488851 -4.355324949639185
15.578531296784638 -2.233781930810946 -4.41471229875151
15.613777052691006 -2.2346118958193064 -4.485382058516127
15.645534784610156 -2.2336910295849615 -4.551700378333209
15.682274531212599 -2.234454200697785 -4.615764706437128
15.717300603074186 -2.234838773085962 -4.679862416852819
15.745959470866554 -2.2361239149139784 -4.730150025074403
15.789213922574065 -2.247597038633179 -4.805147640736138
15.825815019709362 -2.258376598119097 -4.8662753867804245
15.862629501758336 -2.2669149598604035 -4.926722225345841
15.899521734602201 -2.2756465344662393 -4.986119427522041
15.938050760430423 -2.285683440345092 -5.046715799089734
15.98330502574318 -2.294682866700436 -5.1168941689923155
16.04169767198951 -2.299230690587977 -5.205235113814707
16.082743545028606 -2.3054194581527607 -5.265526890856
16.121115750868288 -2.313044171644524 -5.319766004936593
16.174069931050596 -2.3216815826326664 -5.394972117133227
16.229304721379055 -2.321008400785412 -5.471561797126116
16.266968305861376 -2.3178832906367948 -5.5221820927450285
16.323426492105142 -2.3197728231464882 -5.596168767188237
16.37263290959952 -2.318787493935786 -5.659882474112264
16.418355174822945 -2.3201119243292245 -5.716345083835451
16.463222391788253 -2.3215953776458464 -5.769603148185112
16.50468079996795 -2.3203558092122805 -5.816412804042452
16.564980496207788 -2.3089450922776154 -5.882076637895963
16.626397738984636 -2.3010779367890546 -5.9417370930218265
16.668151661347007 -2.296899883677077 -5.97850996567335
16.71449572124299 -2.287072800620857 -6.0170821097352665
16.759839805022473 -2.2739233694566767 -6.052487904565313
16.808290656734236 -2.2613815037463656 -6.086827504729168
16.858530050265355 -2.249287394259367 -6.119530485303011
16.904134935742874 -2.2362985477688637 -6.147073404307365
16.965942373043642 -2.217578413278476 -6.182565176609293
17.024510070793102 -2.203848013028482 -6.212027609754715
17.086822791488743 -2.1896645682044342 -6.241566888434258
17.16053401423097 -2.171388385812654 -6.274909487960185
17.21771082040973 -2.1628438440769804 -6.297630335846524
17.302443841581717 -2.1600440181883513 -6.325850563752786
17.37225539246903 -2.1532612499097583 -6.350466668088329
17.425248901963133 -2.145661173014428 -6.370079021503903
17.48236127573782 -2.1531424842748033 -6.384191224846541
17.593452073338447 -2.1421664355439534 -6.42091836118623
17.66315274088971 -2.1367493599020806 -6.442481656280561
17.75983521334571 -2.1394112434464985 -6.467442900502212
17.82876513740396 -2.1499908618433965 -6.4814802813618275
17.906480501104415 -2.1761559685354355 -6.492152461060233
17.964072206386586 -2.1893977698552023 -6.501466212762361
18.01364008155324 -2.2064139268691463 -6.507326569146198
18.09253455914251 -2.2316484638648166 -6.516831634429515
18.15383158349033 -2.248210712472874 -6.52431817799541
18.19532033640822 -2.2601553164618613 -6.5290408147678995
18.252350139401628 -2.276575072612726 -6.535533768196258
18.321309058257103 -2.2862452277028575 -6.543843050468764
18.39564814178612 -2.278095734313057 -6.556987327492918
18.499827926982743 -2.267994082391202 -6.572538958435201
18.578769600997706 -2.2687211217485697 -6.580391027651897
18.690469868110743 -2.2800735516882016 -6.586302599308471
18.771667808287315 -2.2952327967139627 -6.586677557461199
18.884784347692303 -2.304714898841353 -6.5865979816428375
18.96175469803615 -2.322830633242436 -6.582651084501153
19.06998393657633 -2.322732006734247 -6.577635387709799
19.13920377325477 -2.315834045690475 -6.57338930144825
19.194054704136523 -2.31007240846903 -6.568296588477596
19.27048807345271 -2.3096532377000996 -6.558009495895179
19.33437646185586 -2.300534611569736 -6.548375133251467
19.408268271532677 -2.281832535544231 -6.535594847222923
19.467527183805682 -2.266234267665606 -6.522800088841835
19.540010632078165 -2.2423327814536815 -6.504379943653946
19.62311977302802 -2.229432935198492 -6.478277657923506
19.67774675007948 -2.212811701256916 -6.45963028470678
19.72967988046922 -2.1932850653088094 -6.440645413400398
19.79230346122514 -2.175993215177334 -6.415483894388261
19.83924280364828 -2.1665220583291047 -6.395427858484357
19.90252818559711 -2.1570270499075637 -6.366994005392213
19.96793076412089 -2.1336100615966718 -6.336019190699359
20.02537141023125 -2.109717177832281 -6.307807870280762
20.082326943148413 -2.0828165093337656 -6.278391824420616
20.15287634711837 -2.0525621845875754 -6.240879875787474
20.19700104919094 -2.0152112969686717 -6.215381772147884
20.2494483564947 -1.9737017247359008 -6.1848329410272225
20.320210833477386 -1.9238893806837396 -6.142007144159292
20.37651446151295 -1.8945569760281655 -6.107285186958462
20.435521469171054 -1.8639133113912418 -6.068943571066523
20.496391096491337 -1.8388927278813005 -6.031070337918006
20.5505246024952 -1.8260968036172196 -5.9959819771544485
20.61147793941791 -1.8057128142333152 -5.956023597142147
20.68491829604834 -1.7910002617894039 -5.908057526489177
20.766997785561927 -1.7670051119023205 -5.853487608839924
20.835416021332193 -1.7412132318764897 -5.807004515436995
20.903696924719153 -1.7123539024402037 -5.759653431830911
20.950991320615298 -1.6974700697213212 -5.727554210310679
21.001613264844096 -1.6823417591111527 -5.693670031536444
21.077145557305727 -1.6449797619617383 -5.640975935929834
21.133126173361365 -1.6157493829567535 -5.602193976645527
21.188204643702612 -1.5975731819502492 -5.5646789237510905
21.250664697135704 -1.574475244269781 -5.522630620095775
21.29277418067329 -1.5635575494268839 -5.495326989573098
21.381242016842382 -1.5517700593301749 -5.440586420254656
21.454473407986665 -1.5286733811816182 -5.394485395556655
21.521287331259163 -1.5123566775634192 -5.353308463634466
21.613153159308812 -1.4865037399552703 -5.295504445667099
21.659578133061327 -1.4732981706726624 -5.266084808741736
21.71857092929657 -1.449815523014351 -5.2275943488793075
21.789668671461758 -1.408189043546094 -5.179855756458286
21.858600340803644 -1.3668749927777073 -5.133062530263585
21.932466788060093 -1.3320001266791772 -5.082616155197268
21.977012200793524 -1.3071837396006911 -5.052128986971978
22.03335215841721 -1.2736556562461852 -5.013048370018396
22.082250318816474 -1.2402123332842274 -4.979355460928472
22.14844687423514 -1.1716876285494955 -4.931835731013392
22.181462737538126 -1.1407151233226065 -4.908121506017002
22.239466311593766 -1.0806023712748116 -4.8670223076668115
22.280494406661106 -1.0296083161842349 -4.838208343340321
22.3551825554713 -0.9872883564418791 -4.783741799146009
22.422133409992004 -0.9440239052934052 -4.734204416560695
22.489898550230443 -0.8930518968012722 -4.6837358078998665
22.561147131890444 -0.8593145638339754 -4.627646157934725
22.605530713218236 -0.835913834838216 -4.592239493623749
22.64160911724231 -0.8164692933616866 -4.563128360625827
22.73178126731401 -0.7731622024448885 -4.487265911040252
22.811642141644437 -0.730337707984428 -4.418635535249059
22.885352219547222 -0.7049687297418723 -4.350925027847422
22.948717329390437 -0.6864792513485556 -4.287373826598051
22.98401945119668 -0.6841428590287331 -4.2511425482813205
23.022175293185562 -0.6852739234521996 -4.209906528049249
23.059400842141752 -0.6862571816608147 -4.168705656175501
23.109824686282327 -0.6798919009309667 -4.110420199335014
23.163504129737365 -0.6759032031751007 -4.046907321440502
23.195824882313953 -0.673428539127829 -4.006800861432248
23.243008235082765 -0.6612524760141678 -3.947234465046451
23.304058636117762 -0.6568430475113542 -3.8651194371169275
23.355456658781918 -0.6597970902464745 -3.7898975609567653
23.402824542873848 -0.6503236792027893 -3.7203583351176963
23.459928927349296 -0.6468156838153911 -3.6284015713960382
23.487443922280598 -0.6482046907400445 -3.5843543287135056
23.529448420782852 -0.6505423584528955 -3.5113476528087233
23.553979202753787 -0.6528974892054338 -3.467231536691701
23.59254667836347 -0.6443208263267914 -3.3959661162433807
23.622994034153535 -0.638576066733032 -3.33726229705659
23.646987155255854 -0.634114471427238 -3.2888059946624697
23.6762949512755 -0.6207923883143112 -3.227604342500314
23.719295424364784 -0.6087496407618103 -3.1349253052609036
23.752943223401246 -0.5980626089007037 -3.054735199345009
23.76592781674544 -0.5880322796545236 -2.9840705942705856
23.7502792962476 -0.5666852310635155 -2.910096573197574
23.731693124890793 -0.553503598212715 -2.84397980495142
23.71616422761886 -0.545621698629664 -2.7930966888122537
