299
0.21995966491057217 2.6639191458803433 22.463261152646844
0.17090249399424073 2.6513993760911996 22.474758862940504
0.09593619462809788 2.6250505104815227 22.498635923266153
0.04004335258917924 2.604366285004243 22.51414617231882
-0.016437554379953978 2.5868006452519223 22.52095451197286
-0.06501708964646213 2.564139201608044 22.53512452491807
-0.12438535192149014 2.536675152759213 22.551312710620177
-0.18599695027255136 2.5131293839398996 22.552862503561176
-0.2580833284227029 2.4835215347507544 22.554803722276677
-0.317648367424775 2.451848206115044 22.560937253921203
-0.3712212958720069 2.423012203665351 22.563372003258948
-0.4283642443986331 2.396642869776259 22.557050923547205
-0.4964755731784617 2.353527566018454 22.557391847769896
-0.5654088588893269 2.3021342564091087 22.55958820422875
-0.6182054087711124 2.251726117135741 22.565772756013065
-0.691113245407959 2.16744714158078 22.576156742156915
-0.7280475986105591 2.1222468413940856 22.578585647841987
-0.7632103482155979 2.0724571861345815 22.582821668315088
-0.7974439965800408 2.020396947823408 22.5862639851782
-0.835021158324021 1.963204352675106 22.58657566900738
-0.8707347051913927 1.8793471067339789 22.596463789055353
-0.9245652537270928 1.8306515866421609 22.575116896820347
-0.965815641211773 1.7848513296303608 22.55967750712668
-1.0228348217052297 1.7503129187637614 22.523795795493573
-1.0838019514699244 1.70279457846867 22.485077211349708
-1.151127262678461 1.6278314073926283 22.45194875243892
-1.200467680124108 1.5705732052026253 22.424000975155504
-1.241284038713276 1.5175736444640402 22.39977975394051
-1.2871402551562021 1.4566634383910932 22.37096331551073
-1.3169681256615828 1.4036995994334782 22.355984386943657
-1.3414380233176295 1.3593317213629146 22.341805445294835
-1.3698469569507885 1.2994443104204774 22.32919393411198
-1.4108267280179658 1.252004068987209 22.291094815368147
-1.455003462307606 1.1799872352077851 22.25861066596766
-1.499213014079417 1.0837564370243962 22.226366232811603
-1.5278038963789755 1.0353230829496016 22.201010513492324
-1.552386246110106 0.9812048418999562 22.17930270295929
-1.5965820347797843 0.9175743729899615 22.132294178792215
-1.6478599365429663 0.884266009490662 22.063790629168064
-1.6816103709810837 0.8445424922032425 22.017747727220062
-1.7320673102987905 0.8406715811742786 21.938694092881644
-1.7706298312226538 0.8218996164416998 21.879458808505266
-1.8426813474870531 0.7750019313004575 21.761741511395616
-1.8867102987862918 0.7314566276382164 21.689882137585254
-1.922698690961263 0.6784838803901427 21.633953990176654
-1.956726346257194 0.6473130966056939 21.57348487630498
-1.994052540509462 0.6022069593848156 21.508580504926467
-2.0276043056438273 0.5661958485899776 21.445267934178826
-2.0668092655868233 0.5251345628202573 21.364773827334787
-2.104222724777511 0.48620252128295527 21.286418884607116
-2.145910998309976 0.4632555900407709 21.17210543241752
-2.166169508654928 0.44309320297502297 21.115795365319045
-2.181953352504813 0.4193470755089106 21.069816546870644
-2.2104500891304855 0.3614265636225904 20.999410321171442
-2.244669146392135 0.3588263586186293 20.94386226087145
-2.241623466833525 0.34973146265650334 20.86223869696006
-2.2481255258345607 0.3471376837402451 20.758315171845464
-2.2598553462450393 0.3128192595341519 20.68533915343314
-2.2716787808196544 0.25590455537298085 20.60733029771975
-2.2815479871666744 0.17799934639029025 20.547125547459398
-2.2872933369308814 0.12340957478209069 20.500666164866246
-2.2926790515512065 0.0641373670908918 20.46480939138501
-2.2972378311812593 0.002403567857494293 20.428971354740792
-2.2993895910278 -0.046982967108667006 20.399571132963388
-2.305055544390796 -0.13220390093171042 20.335663479872313
-2.3065095908452076 -0.21336232232991725 20.26952963561073
-2.305047397383048 -0.2661384917690601 20.213690523013575
-2.304075083867087 -0.3166241148464437 20.1621958199887
-2.2994860133687895 -0.37289481528717894 20.089862268127366
-2.2947269251939013 -0.4481799409012017 20.022045099099298
-2.289163169417141 -0.49596843876310515 19.965018666104182
-2.2831057399293098 -0.5296608801416285 19.91521791445903
-2.2741400288351024 -0.5862137046468108 19.843574198845666
-2.2637984633377135 -0.6265607921914753 19.77030813224918
-2.2497177276345237 -0.6150909390428427 19.710334122749092
-2.2314952627504634 -0.6189621128228182 19.624048019566406
-2.2133595327597884 -0.6496748224262789 19.539985168431127
-2.2002998973408974 -0.670499866748808 19.485873944050702
-2.1839265556141627 -0.6972726098661475 19.418105597374414
-2.1684793534238103 -0.7194167307993788 19.35909186790029
-2.150626050833166 -0.7432391117488419 19.29532715005843
-2.1320828638106017 -0.7662575998649694 19.231639649836822
-2.115920294199226 -0.7812193715313025 19.179904013077334
-2.089515817494219 -0.8066639229475479 19.09864163557855
-2.06552387959098 -0.8202797022859503 19.029526818131302
-2.055077769947918 -0.8256646918575379 19.000833249705828
-2.0334739567469757 -0.8390482390705924 18.94209913231981
-2.0123089817211466 -0.8522323380353167 18.887183612530507
-1.988727014061649 -0.8742002825058905 18.82742350793614
-1.9716826108329246 -0.8970922922283362 18.78605300324505
-1.9542178712317742 -0.9185137938740595 18.74420605709308
-1.9307116417995198 -0.9458002110726464 18.688615656494495
-1.9021900412411052 -0.9792064651611934 18.62513265628472
-1.8600706787219317 -1.0438998423695336 18.536769132205432
-1.8266070902857081 -1.0935085757664271 18.47463061676471
-1.7991774050166582 -1.118768975910643 18.418161142705028
-1.7369799829482604 -1.131635775279238 18.29687210263496
-1.6787078850317187 -1.153160592013741 18.18797036049187
-1.6493431946450032 -1.1814184010950488 18.136217872615084
-1.612489891437991 -1.1914721810831235 18.070041916364268
-1.5859229874865477 -1.2079196477302394 18.026515779810463
-1.5588363691631788 -1.1807198676096078 17.967593619090078
-1.5110660075689706 -1.1865412377452575 17.877747795941232
-1.4706675590628493 -1.1710506929161986 17.802797152383864
-1.4312857972473774 -1.1665233772549983 17.72918024878516
-1.3934312122515415 -1.1635737759795421 17.659469292846428
-1.343643631327145 -1.1572479114290048 17.570607704748838
-1.3106622033792008 -1.1585478509286855 17.510673426255625
-1.2610061081983632 -1.167150105268165 17.42491640714208
-1.2178543678410692 -1.1906271971110278 17.359616109210418
-1.1701565885294212 -1.227076187486931 17.318420626244105
-1.1486981214771852 -1.2503440834123076 17.27648518577308
-1.1236881596651664 -1.2913559197489544 17.24168951893867
-1.0872795729581646 -1.3310028423939058 17.196351942028997
-1.0525425984585564 -1.3752280251263487 17.162064626089403
-1.020056882509405 -1.3961296148816686 17.116553267475037
-0.9823412954379305 -1.422600473019296 17.069784772651914
-0.9290353839521601 -1.4302601674187174 16.98997722715692
-0.8826013056332402 -1.4170951709543032 16.913298852301033
-0.8410829245531486 -1.424220579293393 16.854426767398362
-0.8022169709324756 -1.4366496914166536 16.8030782338908
-0.760816039420183 -1.450045604374335 16.749960087817826
-0.7197692751632108 -1.4599728823062172 16.696944693190517
-0.6830866122409419 -1.4674741044923867 16.649491606959703
-0.6428926193222413 -1.471281439547082 16.595638370909747
-0.5929759673952446 -1.4695981129841946 16.52886464942857
-0.553048224874781 -1.4665256095779353 16.475781642186973
-0.5035486265859729 -1.4534925918533321 16.40722240013877
-0.46719169035314656 -1.4331432404233853 16.35254935898934
-0.4358022334275212 -1.4046991651543934 16.301777374536428
-0.37628627010920046 -1.3666920489970005 16.218362483912767
-0.3464570618052487 -1.345271773980554 16.1809947324444
-0.3120140578072954 -1.302029782150761 16.136374433265104
-0.2466632736064336 -1.259262444142357 16.081517183861376
-0.19630354309631382 -1.2332467601285113 16.054047578837856
-0.1474297263055735 -1.2098725016108836 16.0355628931077
-0.0636213122290048 -1.1492608424667023 16.020476160225638
0.004261140927293239 -1.119201268365306 16.02231613842487
0.057132257312077606 -1.1017917593482942 16.02925822285599
0.11712352985080177 -1.0861787502585447 16.041872635724012
0.18190557559241038 -1.0692492532087512 16.05789539257924
0.25275823361334293 -1.0549610700629108 16.07715319736498
0.30156796956897414 -1.0405633461090218 16.092195165778307
0.3542291524211463 -1.0250952044463053 16.108171945325022
0.43780561981110466 -1.0021239771960346 16.132063707692055
0.4880937459842738 -0.9935943494609851 16.143512959915686
0.5388962037095699 -0.9823521041094463 16.155067051411898
0.6154880960357105 -0.9636537125538667 16.173129426499337
0.6685046481909878 -0.95705245510207 16.184694110810607
0.7544470496646032 -0.9688830141984208 16.196928746801163
0.8291197819582898 -0.9540310644028491 16.220602445307385
0.9201854625060883 -0.9465243957061722 16.246239547552545
0.9882421925329472 -0.9595572584412333 16.260356468761504
1.0772403165588933 -0.9918347014586855 16.276757551085904
1.1563230715170623 -0.9830361573642057 16.303421074052935
1.2497587825264087 -0.9854873861003488 16.333243807112307
1.360020493287086 -0.9964745693387209 16.369468470436825
1.4384845329242555 -0.9900524730856419 16.399459304928044
1.4894326679409862 -0.9766419304937497 16.420712356683122
1.5359283613956596 -0.9714524970180138 16.43959252223614
1.6109362066261015 -0.9631568773672863 16.469414716426105
1.6823057937394201 -0.9679088862382861 16.497555013379525
1.7839333703153144 -0.9715608043282777 16.53821709699103
1.8480420214301179 -0.9721843426448868 16.56572467212385
1.9036273421064227 -0.9698595999528716 16.59053931558328
1.9685739078245301 -0.9568947508156296 16.622524065246328
2.0248144768235408 -0.9514911667479946 16.650542946649544
2.0785882760762053 -0.9498973289259263 16.67797500734714
2.1428837000142424 -0.953610505220446 16.713065069790577
2.230995792976768 -0.9567544013083957 16.766844477699856
2.292296792520254 -0.9655159979907453 16.807617446425983
2.346028519596439 -0.9780283166915684 16.846547213876267
2.3991297643599525 -0.980882122793868 16.889704403526288
2.4547317286983876 -0.9727466397353972 16.94278467425282
2.525999982720583 -0.976685051779995 17.03135835851413
2.570418749708555 -0.9700252850733915 17.10302810199655
2.6041155575588455 -0.9608642050002307 17.16386535299146
2.6308801445340135 -0.9389889140579892 17.21718095513402
2.669787975074775 -0.9012206932272606 17.292344311242474
2.7236493601463936 -0.835372206862204 17.39753925888429
2.7627680124065384 -0.8063035718235525 17.47359587139078
2.7839282325713013 -0.7822889403810269 17.513552298487514
2.8080582105463394 -0.7620603798054277 17.559134254879854
2.8435521862340725 -0.743828624939719 17.625221933559953
2.8844832815249157 -0.7105569402902916 17.700792423296146
2.923170425241186 -0.6691136007866858 17.769128394163197
2.9620735662428244 -0.6329460367760869 17.838617981297368
2.997212081283645 -0.6309821588866826 17.90255861733722
3.0395239708042014 -0.542406775264727 17.971176947013515
3.072255070636661 -0.48947793937283746 18.022882947200078
3.105877285514831 -0.40809005317309244 18.06900643150071
3.1410556237508933 -0.3480468760571884 18.123414911437983
3.187876538142806 -0.2899866826389641 18.202712358240305
3.228500984888961 -0.250482937229515 18.272084744336535
3.2759140709593186 -0.17589836743722365 18.35009411344853
3.3174782375178156 -0.14085667970642146 18.422391097386022
3.336888019014073 -0.09526745308274953 18.454723699434247
3.357165791583424 -0.05801566441865247 18.486710334559003
3.377401441464854 -0.021565415991265047 18.519376132834058
3.398996861144969 0.01697172182272655 18.555811552885082
3.4239196555355456 0.05591128871577156 18.600548017446368
3.466507371572389 0.1083194634095237 18.677494197348143
3.5023390833287973 0.14784696786281093 18.750372372101925
3.5366299648343933 0.1826989024914687 18.818533077035386
3.5717573848861104 0.2197999547311429 18.893657435575026
3.5916410977389637 0.23594356400445693 18.93930220542474
3.617469466856317 0.24978375188670632 19.00671381570906
3.654369418851462 0.2802889577950054 19.096958783217453
3.6783243839358155 0.2874834870338263 19.176134830108538
3.706330811660222 0.27607094106534036 19.25801553252982
3.728103302739714 0.3001041845093295 19.32293609032009
3.7477485165509137 0.29715948163594486 19.39121175289575
3.765092662973421 0.2944859254794807 19.46538499204271
3.7791220093208207 0.2984225988999152 19.52475834770623
3.793607629007089 0.3060506448454461 19.591116376368557
3.8070612976473255 0.3154755837100207 19.660059548854786
3.8168618573164395 0.32948125196867273 19.716258483777686
3.8264747688959817 0.3470738426039939 19.786646015806244
3.834479454805928 0.3598850310775139 19.868752298232028
3.837694338819234 0.3696061875029748 19.92012686692556
3.8395884397000692 0.37344772311234764 19.987516928078996
3.840599433015689 0.3796213712012044 20.038994679573918
3.839962455849612 0.3912343829031977 20.087952473395397
3.836700083951568 0.41051667124262914 20.17037309281928
3.828974589082015 0.45426835316247316 20.24698332165513
3.816945262797791 0.4998890489032488 20.336178288276695
3.8062405075206165 0.5414823529985477 20.39106114061876
3.794441691367 0.5655382252333732 20.45583462070538
3.7891190404173276 0.5808509403426962 20.482142347767656
3.7766926041438227 0.613837144919694 20.531626107109844
3.7611538298655676 0.64714634943369 20.593778945923116
3.74950886461626 0.6681357266228589 20.638948782294886
3.737195292082549 0.691680165352609 20.682112523610652
3.712029480772804 0.7348365671849206 20.765832886753355
3.6928316924654085 0.7770864465805005 20.814578788557792
3.6659479136123156 0.8316420269749714 20.878315769574613
3.6373995466348497 0.888668203674406 20.94012656814016
3.6150590964393317 0.9241232300081645 20.994013076127814
3.5900530744352874 0.975850493709004 21.03602266559866
3.5564578108386806 1.0536187502119072 21.08025844507776
3.5265865064109505 1.095326541712194 21.138034969152248
3.5084780853108164 1.1424661913162069 21.156438973256996
3.4846572893830814 1.2072774083723263 21.16500205607781
3.457995482315046 1.2709104893468257 21.185116720750134
3.430565028732758 1.330434726316297 21.208001094309562
3.407063219976341 1.378167999573641 21.229241109785825
3.375533869122239 1.4357743484691403 21.26034335302006
3.351802286301745 1.4854423975440916 21.276673796561248
3.3223580726192647 1.5473409563487028 21.292447127196503
3.2925890535184204 1.6089112273554156 21.30494991760942
3.2705983192642183 1.6536333144759146 21.313991148166004
3.2352721794133625 1.7171114500393865 21.33905310945764
3.208555013712231 1.7587776708686096 21.36345010659779
3.155506147453578 1.8407033831740895 21.40427071877926
3.125452137786856 1.8868921857880074 21.423594809194537
3.0980329134121734 1.927526403662266 21.43953175162226
3.055497830068793 1.986842498340127 21.46480565024118
3.006936588771765 2.0414421093255983 21.505249639333982
2.9527807323603037 2.089371254875041 21.559290240264858
2.9134772079818045 2.104479911463743 21.612304473604954
2.869376927974912 2.1418588336677162 21.646224734627904
2.8262596161369204 2.1781929100567643 21.67339677825992
2.7794073621101054 2.2182351835324035 21.697183385350574
2.7316508194901514 2.256659354471825 21.720178223213075
2.6827626035454903 2.2965195203391158 21.73871328039562
2.611593643477626 2.3503821178714333 21.76374099841238
2.547905951606345 2.38934118057459 21.792313114249477
2.466230307638221 2.4331659489235813 21.82704655697476
2.4283539237024216 2.449763505427655 21.860725821365516
2.375920406939951 2.464314708615748 21.92848331601292
2.307186742003034 2.4641899280315664 21.96894625508981
2.250524710468885 2.464427051903411 22.000136353762585
2.209487419997899 2.4652435956608807 22.021212456392785
2.1691601625291037 2.466046050282956 22.041923808287
2.0606265507028416 2.4913386183637822 22.085392956236216
2.006497339528175 2.5266782010322544 22.08923178754941
1.9579825808849567 2.552691723725607 22.095411176940843
1.8908374310765914 2.5804447755514914 22.1082580797177
1.8130153282830508 2.6073032942230583 22.12300564775885
1.7316478479902744 2.636287285656339 22.133397840530204
1.6247160660941595 2.6732993961168336 22.14238680203688
1.5326658427605844 2.700605149258151 22.14944747928335
1.4434772572006433 2.7166943017989444 22.165192407918784
1.348730497082341 2.73435239930022 22.176955737736893
1.2388182132490477 2.7495815369186722 22.19299631566938
1.153558048102728 2.767357075384206 22.194863778058124
1.098270064409019 2.7728399467895537 22.201437009362913
1.0367811438686292 2.776174142281355 22.212440871527118
0.9521836759112332 2.771249216039644 22.23629409002333
0.8771703138157612 2.779236647206792 22.24185271684615
0.8232879866860057 2.7849738491584173 22.24584524688388
0.7648058524159775 2.7887355543558447 22.250091893006122
0.6903142967798368 2.7829010989934595 22.268424847292962
0.6301835984020199 2.774103801721375 22.288129065715747
0.5300450040891254 2.746516315806674 22.33876310706861
0.45609551471357124 2.726470849094918 22.373669769993366
0.39753540631014794 2.7097676052871025 22.401674406862124
0.34630193215627836 2.6967761511163904 22.421638177786235
0.2717772124777236 2.677134235202022 22.449416505079913
