428
5.172417275419713 -7.133508747279768 -13.932837462506578
5.109593353156681 -7.151229156811935 -13.947661029167245
5.044311956227314 -7.17053875695119 -13.963497396053183
4.98781662719562 -7.188791551932896 -13.977777439304047
4.910433495599988 -7.213777558837981 -13.998587758351709
4.854890111922984 -7.231513323057497 -14.01500361166949
4.792665975001725 -7.251212622777349 -14.033164543087471
4.7264280814367465 -7.2732195718122306 -14.054633150596855
4.66206945596307 -7.2943940455860155 -14.075018742094246
4.597457855262214 -7.315146775536867 -14.097312774911446
4.533235380045358 -7.33768065323639 -14.119742910762755
4.46949140977592 -7.357704539982491 -14.144112377481493
4.392659100742193 -7.374399828558454 -14.178208797786345
4.342010602527971 -7.389883811434041 -14.199809722694217
4.280894275853879 -7.407384232232237 -14.226967575842805
4.2172153964785375 -7.425079411486999 -14.256228845390604
4.1679255933130746 -7.437109225711584 -14.280785492623748
4.099876437512194 -7.4476488380436 -14.318454677023999
4.034701200391551 -7.465184366279413 -14.352695626506
3.9753270159000405 -7.474586526955573 -14.388262872989012
3.917345617545495 -7.489800122511015 -14.421377608184534
3.861616079033718 -7.508247617615247 -14.45258327420841
3.8068391412766753 -7.525833011862698 -14.484983202845678
3.7547463457072645 -7.543788701748296 -14.516452918806566
3.7002329028979726 -7.56193700759094 -14.551324872233403
3.6497161590750915 -7.579928912055992 -14.584891190663216
3.600299792265896 -7.593628729929938 -14.62070126069309
3.552531433816141 -7.607384824157599 -14.65657446119585
3.5068756393125367 -7.619971312403038 -14.693433228638808
3.452849554135845 -7.635567556973877 -14.737720115573294
3.4074449177627772 -7.654564608517584 -14.777465886385594
3.3565667316685808 -7.678464685340785 -14.822520767830172
3.3081338709796215 -7.7030660310614305 -14.869822897089508
3.26109108441456 -7.727475068517325 -14.91750342216791
3.2165559600187743 -7.7506285126762595 -14.967444257297737
3.173286283214806 -7.774141654043442 -15.018066775743874
3.1326240706499338 -7.801235663873646 -15.06850907801151
3.093076239493395 -7.82960036877553 -15.118834614022502
3.055433330071762 -7.856654883222957 -15.17078745794779
3.0193526642106088 -7.882374777164909 -15.224099826351415
2.984783736746088 -7.907700173459661 -15.278142437918858
2.951511863621144 -7.932796294119276 -15.332739346391987
2.9198114848924392 -7.958762535272877 -15.387186281156273
2.8893044616766037 -7.983458011482112 -15.442928168546468
2.859949913576254 -8.003481668224435 -15.500574412545086
2.8317737430950403 -8.023589967552002 -15.558338145333176
2.8048694342783698 -8.045153357105956 -15.615410757436207
2.7787761367047334 -8.066504687923999 -15.672392419867984
2.7539646215632105 -8.08896421620933 -15.728686608064121
2.7299106127346864 -8.109265214673611 -15.785369574685935
2.7065737438926583 -8.12942699654731 -15.841958372917079
2.6840175511572575 -8.147934078204191 -15.898574683145094
2.662324354981984 -8.164199263650403 -15.955102839837318
2.640213291495311 -8.182465772429957 -16.012607518632443
2.6139447189229754 -8.203399354798389 -16.082155365061826
2.593293767189243 -8.219662013288978 -16.137342772444338
2.5710848046043653 -8.237147338392402 -16.19828999447233
2.549921628056781 -8.253412715021355 -16.258946905895368
2.5296497480369675 -8.271145727162208 -16.318421768399123
2.51052716734873 -8.288694624538119 -16.377594943865024
2.4931409953563892 -8.305064515541517 -16.437105415839845
2.4769467052742713 -8.321284069760045 -16.496716165030783
2.462417416977582 -8.336341162114472 -16.55765944715669
2.4496960610583054 -8.343596200240214 -16.620470830083523
2.440515779819888 -8.350117279796923 -16.67268759065924
2.4316721136944217 -8.362526738312878 -16.732984981746664
2.4256444069958842 -8.3724130554379 -16.787280889044276
2.421918981313259 -8.386108317290864 -16.839881228968842
2.418761389759709 -8.403305984403739 -16.9048173462793
2.419358986669501 -8.4271288624317 -16.969779464030893
2.4252144553298365 -8.467072122525542 -17.082107587434464
2.4360529876054624 -8.497507769765777 -17.17689508324729
2.4437718524305225 -8.514799855370441 -17.22531241633987
2.4526674586494 -8.532600203292656 -17.27487699462786
2.4654604265775206 -8.554032385499857 -17.3359075531538
2.4831101469804366 -8.579751464092737 -17.407613636200402
2.5018249652577262 -8.609393489433868 -17.47653628238492
2.517571680621891 -8.632857273395853 -17.528937831732097
2.534301410743657 -8.658862480243714 -17.582336799300897
2.552826984383565 -8.687561482930828 -17.636042015431812
2.572170533530276 -8.71727706074365 -17.690637591682616
2.594231112431478 -8.749141005489857 -17.750117360622355
2.6141703740983555 -8.774484739723263 -17.804426875014972
2.6372500465919955 -8.80095527802666 -17.862398425486553
2.6612068621611575 -8.827366077595075 -17.92138843157429
2.6850496175679726 -8.85335611003258 -17.97851820767754
2.7114533323122716 -8.89006401963862 -18.03965878763692
2.738047455177949 -8.921829481677586 -18.099366426284888
2.764775697556877 -8.952132485667793 -18.16017427391207
2.7976284504377 -8.985504604238844 -18.228340666268206
2.823052583271021 -9.006720162309781 -18.281491764639124
2.8531160298921128 -9.031783093146807 -18.342756415700233
2.883479940053234 -9.062717941828225 -18.4030019763919
2.9137853597200922 -9.085482033442398 -18.461651460500075
2.9471183117432584 -9.109656291149912 -18.52466608275437
2.974213614697686 -9.130528411366633 -18.57488119634967
3.0058347867537236 -9.150397941115795 -18.63126858260664
3.0336970901164912 -9.168147942578942 -18.68112997799653
3.065689281486515 -9.192732425010885 -18.73567179165456
3.099791160001259 -9.217903970966383 -18.793069505204965
3.13449610905762 -9.24162857484139 -18.84967855090954
3.1692733408177127 -9.266651205834181 -18.90557513464639
3.20059859341513 -9.289428710089496 -18.954972818062046
3.2460379359509752 -9.312649402928514 -19.023615890537037
3.286905785571787 -9.334499421081771 -19.083329996018268
3.344668877725133 -9.361868168236173 -19.164499301415805
3.4102738547622375 -9.387213428256407 -19.252792176615767
3.451775716879816 -9.398660620314162 -19.304248458517346
3.486215415336626 -9.407077738769456 -19.346585438681984
3.537539346634958 -9.422174464903065 -19.40868717440098
3.5835441674467785 -9.433464941224917 -19.460011918037097
3.6283216568731236 -9.44444983731155 -19.509684597982304
3.6755051136791654 -9.458166906074393 -19.559727095145792
3.7216105550849523 -9.471051672994657 -19.607974908470034
3.768899069324249 -9.48090408720985 -19.65610319389773
3.811750140278998 -9.490395764066221 -19.698593685160155
3.865882146719688 -9.503913273980828 -19.74955949401667
3.9147024294150308 -9.51420291709957 -19.794901521338463
3.964967977507679 -9.522417213722768 -19.84015374491203
4.0486504072962965 -9.538345934624799 -19.912885170084376
4.1173062384751065 -9.553755387604989 -19.970576391459307
4.160695590882723 -9.561340519816772 -20.006316091170856
4.2033524799648045 -9.567997342862752 -20.040549981630402
4.255443959269114 -9.576010925639597 -20.08145282001524
4.307666150280543 -9.585413385605923 -20.12169807056661
4.372130706994377 -9.597257540972166 -20.170331765073236
4.418772925377922 -9.608152014422227 -20.204835460582753
4.471447770123509 -9.620783193780445 -20.242124694914402
4.524536829925507 -9.631706563222664 -20.279384440471805
4.590355611916515 -9.638950037358887 -20.324928250901007
4.6848658945598185 -9.639505870995544 -20.388299479734442
4.737377984862706 -9.638767141687579 -20.422376885721995
4.7916047451980965 -9.638254530290133 -20.456909985852246
4.845510874013125 -9.63774422171788 -20.49271773812277
4.9021545424027835 -9.637183602178608 -20.526074303586025
4.9494398670072535 -9.637501246171135 -20.55377232232237
5.017828931484672 -9.638094955917719 -20.59207345528803
5.076262249745104 -9.634671895068488 -20.62350116873142
5.134931844904077 -9.631234697410548 -20.65367912146767
5.225653482876693 -9.629316784908102 -20.697412854455017
5.314226140426938 -9.618020027932323 -20.737960216703424
5.378535879268483 -9.609257009147132 -20.76603598232884
5.43415839617445 -9.601286887388095 -20.78975636216734
5.49079132070236 -9.594479826596546 -20.812944308706733
5.571764635754256 -9.58286447306715 -20.845102576978704
5.652518865661627 -9.563120975931128 -20.876434752330642
5.714691443391766 -9.544127398608808 -20.899949985327442
5.765116474640699 -9.530031045231746 -20.918575095036573
5.812670572387074 -9.52173789708705 -20.935650203252226
5.895855019318079 -9.496817682292043 -20.96520244685657
5.977050742352592 -9.46298047835522 -20.994169028681846
6.032834318114363 -9.442436343493464 -21.01379472287886
6.093594016727218 -9.422453178428336 -21.03468237073075
6.154520704218513 -9.40114673552923 -21.055675755940694
6.215623992068691 -9.37986024270636 -21.076436619756752
6.278294969299759 -9.358055322236197 -21.09789788695805
6.338064541098484 -9.336623846278727 -21.118921797931325
6.413964465420763 -9.315245672620655 -21.14390794051078
6.4819263998516075 -9.294218002976562 -21.167012263068695
6.529076661153776 -9.277368911378748 -21.18325511837922
6.583052672898706 -9.258949874543145 -21.201522754566202
6.636212745650749 -9.235008778537193 -21.219347892585255
6.691041076581957 -9.209571867920612 -21.236980543865602
6.751771153803321 -9.188837828879176 -21.256121241465323
6.804955886191215 -9.159419936808781 -21.273388280544
6.859984271659067 -9.128506905673653 -21.290659635437887
6.916987613639249 -9.097103572970854 -21.30826104127486
6.983644987344231 -9.059276606127854 -21.32815756352051
7.041294303516235 -9.015799861216811 -21.346265923765866
7.092589971777632 -8.977646039668006 -21.36179700082909
7.147849398527371 -8.927567590799812 -21.378764397164385
7.195448113419584 -8.873892396539967 -21.394263428505923
7.241320523234656 -8.821276845931342 -21.40773654272662
7.292346999253734 -8.77084946120014 -21.423385473236998
7.341297757820065 -8.711527070849328 -21.438065344197934
7.371243392762129 -8.67179400158844 -21.447217151355208
7.400343977922278 -8.631217494336832 -21.45678246141111
7.447413375007432 -8.574674752698431 -21.470545913743752
7.495116618825664 -8.519567105298778 -21.484854485472415
7.544720538541821 -8.467771738724768 -21.49964940327494
7.595139081233184 -8.416963846227205 -21.514625077235614
7.640035464493422 -8.36039012772294 -21.528358523150487
7.683564523473326 -8.304754743221503 -21.541518465110915
7.727822922033394 -8.247237388385212 -21.555467545965534
7.771295178680219 -8.192141044468961 -21.569004626765636
7.813554216375847 -8.137348482639428 -21.58244666957123
7.856112819488413 -8.084440695815275 -21.59598757480754
7.896347359194832 -8.030930880280236 -21.609222976052646
7.936483534651767 -7.978964825880814 -21.62248354411499
7.974199520852448 -7.926786519262281 -21.63538853694481
8.011532992977232 -7.876347895705651 -21.648347619289744
8.070213436934338 -7.7992103984854655 -21.66948731551966
8.12265404075681 -7.740263340791406 -21.688696025426136
8.17233630802686 -7.679083626259446 -21.70826203111002
8.207907203337705 -7.63036569449052 -21.724027804578572
8.238058052654171 -7.588762571848056 -21.73894523927902
8.268507628039945 -7.549817825571383 -21.755252234607454
8.31174442323141 -7.493384464282718 -21.78107373934724
8.35943086220885 -7.429087824450736 -21.81313528097475
8.401929346228219 -7.368847359000892 -21.84502062654394
8.437960615746594 -7.318349853318141 -21.87375595037613
8.472741395852138 -7.269137547450258 -21.903269283932737
8.515433451189244 -7.215778472473136 -21.937811099192178
8.543090061647607 -7.178293612054761 -21.961221345440205
8.571464194860678 -7.1299443623906775 -21.987926057986652
8.598425453489755 -7.088162830256303 -22.010745305962228
8.628329927674326 -7.0325817273013325 -22.03900969960018
8.662851771536902 -6.953304793211885 -22.07129483113249
8.736574571994352 -6.832087907923997 -22.116573292692458
8.775826028471972 -6.774275457666153 -22.13248128003731
8.813436537032317 -6.725740506478653 -22.14284291075476
8.85139483713088 -6.673859601108134 -22.149368091873445
8.89057608320843 -6.619641385289116 -22.152410827154906
8.936826816152937 -6.563403181797714 -22.15071974426723
8.988722126657283 -6.502915493855925 -22.14473485790484
9.035761436113901 -6.452181274230799 -22.136024361607696
9.075881748559999 -6.403306189915555 -22.12608486211757
9.111877262822453 -6.3583604773203515 -22.11553461977574
9.150021092510555 -6.312762332436106 -22.103271010006683
9.18677688168114 -6.265971934239005 -22.089713017054226
9.235771486377836 -6.213509417785639 -22.07232650276135
9.271533017015468 -6.174389562533129 -22.058336228790054
9.310818087822136 -6.1233088660754085 -22.040277213491212
9.347983838762708 -6.071955866132557 -22.021700272313183
9.387109625121766 -6.019752578983788 -22.000710445728533
9.4287572701766 -5.9666050740302365 -21.978530582434935
9.467963575502047 -5.913172631527398 -21.95554410377917
9.507499134798802 -5.858598991965253 -21.93122414437782
9.544622053658294 -5.8026732439320625 -21.906296989013995
9.598978323185658 -5.748494312096586 -21.876074609298694
9.65281650123994 -5.678115301802129 -21.840206403451962
9.707793918128313 -5.61970201253115 -21.8054993292884
9.7563590737706 -5.568551165465502 -21.773965805857877
9.79467113761636 -5.520030932595331 -21.74542705160421
9.836518424605753 -5.469496184525664 -21.71417088526123
9.878937058176911 -5.420399149170336 -21.682156757166855
9.921560005545015 -5.372598000197254 -21.649179458578605
9.960598186682262 -5.322193967501628 -21.615907506877235
9.99678123690163 -5.274065270654942 -21.58334409428238
10.043879944289632 -5.230858732961323 -21.547373929170476
10.08612368070789 -5.1901572949444414 -21.51285425087737
10.118754689535661 -5.156357427167672 -21.485171395481586
10.166137335320547 -5.1115012927813845 -21.44382532449137
10.203566830517946 -5.080365142871996 -21.412306646258802
10.250652193444864 -5.045729789407863 -21.37306720968351
10.297892274437025 -5.010908878238917 -21.33198819831503
10.351066695773156 -4.9682803971726575 -21.28116411406839
10.399290864909265 -4.93236770080877 -21.23397686579049
10.446785949101642 -4.891240947943498 -21.181975562543812
10.48453550233657 -4.855819453257013 -21.136917174305523
10.5223355714704 -4.821031338424712 -21.090778638396348
10.57514218017404 -4.778488381531341 -21.026869311979933
10.636986794764468 -4.7229946702220325 -20.944839129550612
10.671986399725895 -4.688767157377367 -20.89399502379921
10.703777766742267 -4.651702940518598 -20.841730354466193
10.740904834763668 -4.609665255041092 -20.78206825658519
10.771038413608315 -4.584674932184797 -20.736752946415184
10.807435662259744 -4.556469034392954 -20.683503722368282
10.846837013312124 -4.527926140155506 -20.62727255480966
10.884879581907757 -4.505195304990144 -20.574519093591586
10.923365103730326 -4.48052355720996 -20.518882997887967
10.956113877800313 -4.454194830811346 -20.46530625342476
10.99115133623507 -4.429097880935958 -20.40989110143175
11.02669222225596 -4.4068564036965245 -20.355146280020218
11.064057410266848 -4.387368103251484 -20.300317516181217
11.099646845644726 -4.3671796718445695 -20.245569755230715
11.133590228163694 -4.349924953053888 -20.19413030645444
11.165782385956712 -4.335575359228867 -20.14386798130862
11.204889954653478 -4.30870159344508 -20.077643808052056
11.232472186886623 -4.291390769088922 -20.029737236003168
11.261990925767488 -4.272616247621363 -19.97692948403686
11.28937890479843 -4.252980111304138 -19.92465517871334
11.316401604006508 -4.234762146145417 -19.87327569489293
11.343234630410265 -4.217860249548535 -19.82272045030344
11.368514815396377 -4.201405941547116 -19.77318029214946
11.398455957066542 -4.181210303262143 -19.712465410430603
11.419796930904866 -4.1674731612952485 -19.668434396012348
11.441416753246397 -4.155154900459831 -19.625043849214812
11.476274404431383 -4.137372740409325 -19.554485507062427
11.516177343065756 -4.121176441148252 -19.4759938630185
11.5524583409677 -4.101814753631071 -19.392489219061964
11.579734723989684 -4.090028766389445 -19.329653854899536
11.606989484083147 -4.082003730413806 -19.268567902384465
11.64762478949445 -4.072496310796907 -19.174904904182036
11.676471998173675 -4.0579801577028345 -19.08518438728756
11.694307856744217 -4.049288070483429 -19.020865347852236
11.709539340570796 -4.040022070129581 -18.9586515627492
11.716418627677378 -4.024953796755105 -18.89552539238699
11.723830427442753 -4.007212001932081 -18.815080187181145
11.748092753223098 -4.006949138845296 -18.7159006842543
11.763037891886192 -4.001322821172966 -18.611502425660213
11.77277338490224 -3.997466881700805 -18.52370052692936
11.778058259692841 -3.994973922750846 -18.456712808271643
11.787998356465117 -3.997811567318953 -18.37093557491241
11.79736062892195 -4.003992787673889 -18.311513637377473
11.804328341935346 -4.008994234082506 -18.261830152807537
11.810189004864853 -4.015475051021008 -18.143939194553376
11.813140355800801 -4.022307208373758 -18.061684573629485
11.816150652067375 -4.029806238871979 -17.996541833348008
11.81703368283602 -4.037394325163692 -17.93042118165176
11.816078732782692 -4.044387324156762 -17.86330173633637
11.812108355839285 -4.051216987971047 -17.78902365457964
11.808527616467806 -4.0591201796908996 -17.722593308984628
11.798366416808818 -4.070700152825623 -17.612275486924478
11.794683179734438 -4.082309741961256 -17.543659153751
11.79075599203632 -4.096395565050976 -17.47143445191368
11.78778311840679 -4.108443361722559 -17.413496515518933
11.78021187416521 -4.121504566579917 -17.343427103609844
11.775886095751002 -4.139662960973726 -17.27101396383404
11.763901183958517 -4.146885681902479 -17.215981104650627
11.746308278879766 -4.159175377276858 -17.134966030322527
11.732397219396763 -4.169990456594635 -17.0725503681723
11.71365100285269 -4.181649915041412 -17.001870456436777
11.694629083127026 -4.1961135955035225 -16.928324776585114
11.682623260079929 -4.210375200541252 -16.873430488746408
11.670712171430722 -4.223665459441293 -16.823782290187765
11.645149246283552 -4.239014234592496 -16.749497974982752
11.621114059884146 -4.255508671807965 -16.681875723208798
11.602814420013054 -4.270050264133355 -16.629653151925602
11.583944178814107 -4.285640044715313 -16.577959961051654
11.56076774432831 -4.313528693635189 -16.50860636407418
11.52661796866628 -4.335557609857023 -16.43991560287067
11.483006716642862 -4.366811623717297 -16.357591280889693
11.452401498790273 -4.390256457531137 -16.30263284772101
11.418441762583907 -4.413317531586632 -16.248585331225215
11.384504803725473 -4.437785672353117 -16.195637425162147
11.351746057672788 -4.46073062154408 -16.147512636855506
11.309099334726948 -4.491158186062197 -16.087600584377633
11.270871021568151 -4.511803739468718 -16.04135415010755
11.22805151007757 -4.533880148062233 -15.991677452540097
11.18726596837048 -4.552292485500644 -15.947649473754653
11.134987654794061 -4.576421217180017 -15.89305268993858
11.091894205826176 -4.601199883199497 -15.845692584514927
11.044849036275284 -4.628382896015539 -15.794964329557123
11.007341231909871 -4.646036582580766 -15.756263158799078
10.966066818684318 -4.665779473924714 -15.714372539542735
10.919152159181495 -4.690551659005159 -15.664645571412601
10.880565924564735 -4.7171412793325205 -15.620979965130799
10.84098605583387 -4.7449730025818315 -15.575651424106939
10.801840015096646 -4.772411462973661 -15.529632739241743
10.76639732031256 -4.798226191266006 -15.486724257756174
10.73178992032355 -4.824194450274734 -15.443931844976346
10.686668888904894 -4.855510969596519 -15.389372842064605
10.652507505722024 -4.880943126137192 -15.343631212947363
10.620156842323688 -4.907779077206624 -15.300344417974843
10.582203514416669 -4.924173777832513 -15.258682875095355
10.533481081153592 -4.942310289764198 -15.208763715283505
10.485526835708551 -4.961789439992607 -15.158370235126666
10.40500110066214 -4.990739495392442 -15.078475764190431
10.367534336897435 -5.008348500772247 -15.037952128723296
10.331322569196898 -5.041154595286361 -14.984587022665112
10.302517550650478 -5.0632184086946115 -14.946113798503957
10.265373787267881 -5.093161436197613 -14.895100998560848
10.211890143210434 -5.123879987234514 -14.834782553885029
10.154689343403271 -5.156609471187846 -14.771144399782179
10.105308871859286 -5.186648779139519 -14.716224827419056
10.059572097634778 -5.222885220037142 -14.659329905100305
9.99704433163199 -5.260674113745202 -14.594402533159405
9.949176652357693 -5.2851352139475125 -14.551073768557176
9.916628690162394 -5.308982999388073 -14.51651842268907
9.850565203327218 -5.354818241597295 -14.45208332643764
9.804529864048416 -5.396121683004654 -14.404407746528355
9.758824389937377 -5.426722911432703 -14.367375742834453
9.718784111729484 -5.456227480625834 -14.335103736112186
9.66153476085191 -5.496046433258235 -14.293859182587545
9.575903729166544 -5.544330227441984 -14.246663077960322
9.526673933413406 -5.573694322464675 -14.222199073696073
9.45122803038264 -5.6439336658881984 -14.177707772610992
9.403738479937786 -5.707753681297996 -14.144637406952105
9.367691998353685 -5.760109757331321 -14.11969984016949
9.323026932415639 -5.7984287204490546 -14.103227129086788
9.281834788988597 -5.830047207320457 -14.091154189015652
9.24104558541034 -5.866708631813784 -14.07652291144163
9.174710183750282 -5.902690010504246 -14.06481024343242
9.111185114429919 -5.949272984987525 -14.048431501658621
9.006626738870875 -6.009754353878629 -14.028025376410307
8.9478895059419 -6.019069440541724 -14.029584355761825
8.838290812697913 -6.086222196712686 -14.00377145103222
8.766910793348169 -6.124095081603759 -13.991230268966204
8.71453356594052 -6.15213917591635 -13.982778853484286
8.652938112309439 -6.179927043477708 -13.975688114095702
8.587280976944838 -6.203913493427242 -13.970623197350088
8.522858656986735 -6.25224233953318 -13.956271426050462
8.470096521831358 -6.279697247027446 -13.950087372371874
8.423358821057798 -6.310637478268685 -13.9410109254141
8.358221459678475 -6.34438598855783 -13.933720904480912
8.290300244953619 -6.349872362336331 -13.941690335463692
8.206581321138763 -6.41196758241451 -13.921137121448913
8.096276421472137 -6.421425690650821 -13.931124530091951
8.04732821608041 -6.441226742465288 -13.926455256701077
7.975560362135695 -6.472907650415939 -13.921644583834576
7.89734724308333 -6.514684129352911 -13.9126691695339
7.824522768186163 -6.550464301260046 -13.905748673234184
7.757201441828283 -6.572811058030233 -13.904078077739426
7.697799106967048 -6.613629336516407 -13.893073437340655
7.640840312768202 -6.628286186331607 -13.894225909850517
7.541812147600248 -6.663755984315241 -13.891716508949953
7.486597837449264 -6.668077873267647 -13.893992163730529
7.424540550759758 -6.6652440384821645 -13.90131010339598
7.361359222756905 -6.686263123003517 -13.89825637939086
7.2953491459337565 -6.713139229205771 -13.893832570719889
7.222390303317786 -6.735503764166902 -13.891505882322315
7.140183132288619 -6.759252934441154 -13.888930321744363
7.0316829805774255 -6.8066980048298635 -13.876023259710179
6.983333162727805 -6.8246612275609735 -13.871175542946093
6.919571887760947 -6.846379036116357 -13.865269788312345
6.857845018361775 -6.86770522799633 -13.858219694548692
6.7951012046770085 -6.889957170298789 -13.850577598845648
6.730805210969034 -6.9123514042796685 -13.842426175943261
6.6784372587897405 -6.925614859659472 -13.837547434832222
6.598747994017352 -6.9319547457075785 -13.836393571786362
6.489474253471468 -6.965979096942556 -13.823822805053323
6.364165616180392 -6.983063307353051 -13.819371942257726
6.27540314230305 -7.008376275272106 -13.81083203991488
6.1944667921593215 -7.0154218931744765 -13.810506868046135
6.134745285790633 -7.029591689862956 -13.807073335810196
6.069011554811532 -7.034176941230047 -13.809003969307215
6.000495641191627 -7.037061299536138 -13.811953117525574
5.927567968629242 -7.042096079354877 -13.815681593491052
5.840496920975266 -7.047957865454421 -13.822079861416379
5.765762536166584 -7.050177422417946 -13.829419005096542
5.698017461487913 -7.053848598965265 -13.837185024052433
5.630497189165634 -7.057409169849814 -13.846614150935205
5.543250424910449 -7.062464220568055 -13.860523206664942
5.473486192227961 -7.068492353039522 -13.87278333198905
5.396202330932055 -7.080486774688527 -13.886314347163855
5.297258914281004 -7.10304557002331 -13.904155772280346
5.234887025940847 -7.117662316294254 -13.918519912988076
