409
8.44996576094648 3.7364301508161715 23.020194477462102
8.430648159090252 3.8198988717761972 23.02857076904472
8.412007158507782 3.898639503702163 23.03765674721073
8.386775259076801 4.0063799452915925 23.06494254989751
8.372369839994967 4.066475011347754 23.07950472494309
8.354280559201646 4.139109819811689 23.092143797027564
8.335910467689736 4.211668064285919 23.103313376669178
8.313602171963952 4.298795545593323 23.12193524171815
8.29515794269505 4.3707890978054005 23.140906603654834
8.269428184187586 4.466268085748184 23.18266273717589
8.251499971386185 4.530131470745382 23.214090558576494
8.232735868294377 4.595451139511753 23.242179461804945
8.215260099622776 4.654998298805146 23.26375173585381
8.192232925371982 4.730344140964143 23.294372010560508
8.171300777383212 4.797413670912854 23.319831024778622
8.149961534306842 4.862958413750378 23.346879177584686
8.12816607667359 4.927151493506556 23.374967810315557
8.111127210558314 4.976235067122526 23.39773465860595
8.084104741265195 5.054947344896433 23.427766487545263
8.059971147037002 5.118206265728774 23.450707985918964
8.035809217264676 5.180653170495455 23.473175688452653
8.01154316362387 5.241460766601349 23.495413894891072
7.9874889752069365 5.299607105830728 23.51932820189476
7.962493469944217 5.350557037041807 23.547237699931355
7.938876464391047 5.402597585851454 23.57632989520668
7.914227047165465 5.451249188138141 23.60259540112069
7.889003631236779 5.49738255431413 23.629699761881376
7.841152517184604 5.572898344652871 23.68324390397927
7.77609318608374 5.686099725612505 23.70653403575095
7.721908947527082 5.760920329347701 23.73440234382551
7.664258728975602 5.820221473204062 23.77288541177807
7.610291426359414 5.86050458912679 23.817392813093214
7.556646128158068 5.892455406042871 23.85977845728919
7.507837732303662 5.920308314052815 23.89078476131147
7.448895826032116 5.946356752519033 23.92643259971086
7.401151571390741 5.959539484298074 23.958961872266308
7.346694140788534 5.97125342063248 23.993052128848177
7.291170214902012 5.979077320692984 24.02645659089422
7.204477797745604 5.982089919421207 24.07644574774315
7.1179530864140155 5.980921386350922 24.121167159852778
7.031642626404613 5.9843125402612865 24.152282822881325
6.950458772842714 5.990345230694483 24.173541591559484
6.884381830463115 5.994644378673304 24.189214206523005
6.814574906170382 5.995004807329832 24.208148350910516
6.7563864656296975 5.998437481523198 24.219628198328465
6.696820689559484 6.005738536304102 24.227763549082205
6.603941943072153 6.011699740229676 24.243303613441526
6.46779304682334 6.013645998779098 24.268142987171235
6.378340183426646 6.019216434130349 24.276306249824042
6.310060188677164 6.021474663355417 24.281723920630565
6.232524984511247 6.024380792449725 24.285105495142663
6.145922005082651 6.004336074689369 24.307091644651845
6.082674451114398 5.982931647590818 24.327152437318016
6.035323178788905 5.964001526036465 24.342854306854825
5.986496447006118 5.93879429483028 24.362217311133353
5.9063615424849445 5.913713673933956 24.374665190478712
5.83990477363945 5.8875305797638005 24.385338014527775
5.77577061725628 5.8527331382757 24.3999070603739
5.7179396340564494 5.810693177024466 24.41859215009414
5.681058494607541 5.776984031522541 24.433881053570182
5.644760409793721 5.740053171976251 24.450249771843506
5.610660955005132 5.700747267142355 24.46700269198231
5.575291895426539 5.659864446244591 24.4822938098231
5.520514412129035 5.596071484856574 24.500397927462505
5.4742737148719245 5.547811102821606 24.506854651026963
5.429004905165776 5.500244604951136 24.50889924453299
5.364757472430096 5.427967936834102 24.507344722969307
5.326354145721208 5.373101132484732 24.50835862955404
5.296234050096356 5.328273319499272 24.508941757438965
5.268084162908247 5.282145947408295 24.508924140258543
5.237281445903058 5.236519100844904 24.505383939023925
5.200288164140307 5.176641677991996 24.500404218364675
5.164479971071018 5.1172406599705775 24.49469646166008
5.138598072845508 5.0597428679966425 24.49634565705829
5.116335750731695 5.010961382342232 24.496617856010033
5.09104146478264 4.949282244937108 24.498405573465764
5.066223987286788 4.888358444400761 24.49873677402382
5.039299433139423 4.823718988276792 24.498579525286864
5.012999901251241 4.760402962840284 24.496948783181267
4.985881473479964 4.696957457730915 24.493132501317525
4.9587012822958325 4.632845265075507 24.48877955137899
4.931951779286292 4.567472073815254 24.48433678174814
4.894067847875255 4.479868436241973 24.476607226585152
4.869508976543407 4.412465298297836 24.47332103521006
4.84937341638874 4.357400638980535 24.47029620483385
4.822983594808813 4.294065444555382 24.46379176737612
4.790444152352576 4.198087641756289 24.460282000456562
4.774709332539449 4.150543757050905 24.45905602066284
4.7590512724061504 4.102950991006716 24.457777775798448
4.735362200692268 4.0318823878386505 24.45533537157225
4.712328832062968 3.9602799429253706 24.453672676008992
4.697764848912814 3.911894355606278 24.45353207218536
4.675968042013338 3.835435955701027 24.4544307279658
4.656762423983411 3.7648986728550726 24.45699046151148
4.637071346673141 3.6880479631437817 24.460926608489466
4.617603938452225 3.618637669946003 24.462310232969187
4.595333701365924 3.5375576330585936 24.46457404284506
4.577777088232302 3.476798475903643 24.465709644196398
4.562226623504134 3.4228994013384932 24.466779797823243
4.540041329704351 3.3310947905254666 24.473239575743396
4.5203568431903545 3.270787761998198 24.471504220847578
4.4971069359906055 3.2023561612233813 24.469943178707393
4.474392793623511 3.14531214949237 24.463939335455475
4.451691953623529 3.090366182331989 24.4584064316335
4.430859997679723 3.041343533601344 24.453319200864044
4.402108069503931 2.976126078788604 24.444874796568197
4.381519414933867 2.9301586434977613 24.43899165082066
4.360568936316506 2.8840829715331084 24.43356084101179
4.333969662679948 2.820135347352962 24.425560338329028
4.303131442382915 2.7499940669859244 24.416223472239423
4.282126029117074 2.6970817664681066 24.410605670694324
4.263554702861545 2.649310231558508 24.406598714637692
4.2455370132312495 2.6011290645442884 24.40336570831136
4.22754943654876 2.5530318894081176 24.4001384494389
4.200121161962927 2.4804013476744293 24.39458987193133
4.170527926682961 2.399999310712814 24.389594716404005
4.150516774387213 2.343662686286053 24.387511978274798
4.120254144553391 2.2685143284302196 24.379067572334254
4.099261243606018 2.2174764977146495 24.372951676926427
4.059727940968543 2.126885655177391 24.35804879503955
4.0307510600485505 2.0613549195376875 24.347077261695137
4.000829127598963 1.9980558537638071 24.333086118708948
3.9700575104830422 1.936702122931396 24.31634350752226
3.9389410548504546 1.8771513761130585 24.29825729970972
3.906908264122307 1.8133750502982027 24.28054159383031
3.879732552872782 1.7585801573518358 24.2647583692315
3.842269432316222 1.6837431813417734 24.244243226905446
3.8132834384139906 1.6267520281488759 24.228248012797835
3.7720172847076583 1.5463303153075083 24.20533261917309
3.7377685681601296 1.4797919036996072 24.18595196331317
3.702681160923851 1.4070670501401343 24.169559072870484
3.6814457409768666 1.3587399855534308 24.164167189071076
3.6455443803413607 1.2835726183430038 24.150561808555025
3.611697078088783 1.2201657471852547 24.131207413528557
3.5833216047126197 1.1648645468444734 24.116950534900447
3.5563420497460236 1.1132150086662502 24.103419931499243
3.5218323016583644 1.0533360615784817 24.087583568118635
3.4873601859758936 1.0041944226111195 24.06871536320919
3.451867012758463 0.9583951533701818 24.05431661359484
3.368097059415101 0.8639396384192404 24.039282179121365
3.285808816852417 0.7862239086502125 24.042258305776944
3.2293916105068354 0.72038826887559 24.048174608228916
3.1988616042211597 0.6516629269801326 24.075258204750693
3.1862694569808765 0.5930043211228675 24.10094060071675
3.1764444669845577 0.5167351111414717 24.12518157131009
3.178648996409107 0.47288014063110406 24.153430508999982
3.1836469171081285 0.4013356054231192 24.197052633456924
3.192262393138971 0.2981840570493848 24.24577118267103
3.194898813834653 0.2247957148598223 24.25990120428528
3.19860251345919 0.17462038378321054 24.272357684113082
3.2036159206738004 0.12262185944441217 24.28770794243167
3.2081019697358273 0.06751331054220167 24.29832186674594
3.2146469657343317 -0.006504512508542781 24.312258154724386
3.2203170802952665 -0.0773623845396143 24.31990219135949
3.2279350083839677 -0.14549572249202125 24.33180790330405
3.2345684033708184 -0.2042701223204082 24.341681823863247
3.2429090070935893 -0.2698964304795757 24.3552060421776
3.2515800444440446 -0.33733468123977506 24.367920685720414
3.2600245042528053 -0.4062019598834823 24.376681059663177
3.268513810382153 -0.47655100799571315 24.38240188322126
3.2813580586508078 -0.570741185465077 24.395547279989685
3.2957364982854327 -0.668331013635922 24.414132248144945
3.306281406387836 -0.741583757329872 24.423177702122793
3.313549484029724 -0.7908860782692435 24.42951414258896
3.3246491769827204 -0.8648391836513358 24.43920250100186
3.3359082123849317 -0.9399311624719915 24.44730055785415
3.343651665696734 -0.9898608729197984 24.453538805703932
3.3516168830930506 -1.0398275510852426 24.460947176253082
3.3596303743920415 -1.0898303401164657 24.46842470117329
3.3677052511628904 -1.1398204205395381 24.475779119311227
3.3758089168431593 -1.1897525735690504 24.482926787360356
3.3839399641918937 -1.2395997489028439 24.489783479886142
3.392072605930136 -1.2896938144127805 24.49658194367446
3.399921965461062 -1.3391437976350153 24.503683176013087
3.4129620976717874 -1.4177641837938002 24.514362342191617
3.4246274774722907 -1.4860182979587222 24.521410180375533
3.4369447878380055 -1.5583643483281922 24.530099988970914
3.451930864366098 -1.6414785982394848 24.5434614087315
3.4657947189972873 -1.7320574163741012 24.563954878043635
3.476195431569735 -1.7953644190093483 24.578055026456
3.488407846855118 -1.869140430113971 24.59052163692555
3.499376259938928 -1.9355014568245479 24.60039759990723
3.509161441510637 -1.9999925792827176 24.61204153380382
3.519247822174287 -2.063192931364242 24.623688333225992
3.5268953089198574 -2.1125450402691364 24.630991241053298
3.54013489775322 -2.20246181120594 24.638541396945325
3.5508357239161406 -2.270972749774293 24.644777207965497
3.5609211765698885 -2.3389734883568893 24.650282300246207
3.569028413573469 -2.3946498716196594 24.654390632891747
3.5770855014173577 -2.449983700011822 24.65848070146722
3.5850307767337184 -2.5050393736210945 24.66268728896476
3.592807867459249 -2.5597381650750086 24.667189512900304
3.6005684035411702 -2.6140479959933223 24.671365726338742
3.6083441296237595 -2.667843572127249 24.67536072976715
3.616148500822245 -2.7212205312695046 24.67944594556046
3.6264789417280716 -2.7974261460114755 24.686668395057094
3.6385530716829653 -2.8781301291497763 24.69215922009631
3.6455621132742477 -2.93023680411001 24.694840475579234
3.6557200584583454 -3.000407864931131 24.69634742671868
3.6674523508186994 -3.078267805011272 24.698235593960366
3.6775593465865515 -3.1502770120774506 24.700726592271455
3.6881063945996555 -3.219176322334812 24.703620736758722
3.6975753845831667 -3.2902365399677285 24.709242730739927
3.7076206907671603 -3.3572648656792463 24.715026933750263
3.7170916996270607 -3.4221168315582333 24.71871591286369
3.726387604454664 -3.4848993465712494 24.72119102598245
3.7355172260274916 -3.5449493756478887 24.722532502898197
3.747640935453941 -3.625105102620243 24.725175043585153
3.756101274801585 -3.68409228976812 24.733032247432185
3.7660237640360172 -3.7551755946911896 24.74447166830325
3.777667961871359 -3.807008168879729 24.72918078338396
3.789239558054565 -3.8909940989388936 24.752267198757167
3.8007133174985475 -3.949403972838712 24.739675348351806
3.8164274617535634 -4.027442290100568 24.713573404872438
3.8126369675830727 -4.071877885207398 24.681253332365753
3.806116988804251 -4.0629682446175925 24.599941301875653
3.7953033021723765 -4.062412838377249 24.551121672568467
3.8219500303597025 -4.041632133810336 24.48957430381593
3.8729689849298516 -4.050456877594306 24.43615683780069
3.9235957555710357 -4.065589432275388 24.40300267807133
3.9794384411165895 -4.080654275605387 24.373912133715073
4.029427643626925 -4.094831692738604 24.34990673146483
4.064825761084688 -4.107624514791203 24.333640248019023
4.143603420791858 -4.130522842222693 24.30080270779325
4.234310933189044 -4.147176336298083 24.26858019248056
4.299025608460883 -4.1610183756438905 24.24560187022433
4.4152270039373995 -4.14745182908675 24.220068636478736
4.507576136062802 -4.148992252855651 24.19562208410553
4.594814033423045 -4.150824492144541 24.170167549473653
4.67017062613159 -4.14754694864949 24.151015390430857
4.77780261959011 -4.155305195299667 24.119159942364156
4.838913668800404 -4.168262201243351 24.09670540651925
4.898879801438346 -4.171470228781279 24.078383474839093
5.006056916567166 -4.176854445991494 24.045045598842457
5.059772862019273 -4.18883214670102 24.0242832663631
5.114089423089979 -4.198113112643073 24.00363466144758
5.22002437385712 -4.201942094062387 23.968201827430025
5.3214831035967265 -4.184560260077173 23.942082655880665
5.368546218380197 -4.181376513280423 23.9276388708166
5.425419200167138 -4.171129782697701 23.913697067781932
5.502360435400577 -4.165886541281828 23.891589965044616
5.579403368918175 -4.153642923419289 23.868720720403157
5.651817331405935 -4.141562261085356 23.852059514847205
5.753321446296667 -4.116332318510128 23.829860933866158
5.852066880896148 -4.105691263768647 23.80088007036496
5.9340779635585434 -4.093028294119533 23.779188130967295
6.004873142498932 -4.082057496579999 23.761081254450787
6.093799868464597 -4.065964118103382 23.738982921935126
6.161274752327888 -4.050064734767006 23.72182432527393
6.225983688361435 -4.035614195802721 23.7058632678245
6.309175290644561 -4.011185654566244 23.691073389822
6.380416992608141 -3.9969427702355094 23.673252076726186
6.451600418978867 -3.9790570197112727 23.657226899978014
6.51286406382985 -3.9635334320975626 23.643412868668737
6.591110591037463 -3.957378255509255 23.618517484787677
6.659266242989839 -3.955615290861938 23.594688904786974
6.729011317566572 -3.9507537914787685 23.571496343517218
6.792347770646922 -3.940011539464702 23.553472982812828
6.85784436171237 -3.9251102903706494 23.536906745453933
6.924157309777099 -3.911315743493894 23.519187477872464
6.983590671484317 -3.9017029760700215 23.50147006031725
7.052486177974247 -3.894886421425152 23.47706731322376
7.1217635979868685 -3.888782961252569 23.452204585684314
7.198439065741818 -3.8838021377987513 23.42314576615099
7.2744931847357375 -3.881360158483849 23.39316879168582
7.368240340158355 -3.8669057297475815 23.359474490783956
7.425127191725172 -3.857405152317479 23.340181489933983
7.495282692037765 -3.850259615494064 23.310137008855797
7.576093874683012 -3.8408362686420086 23.2740305722955
7.630763931230298 -3.834800678875186 23.24792554617876
7.707850927476265 -3.8225756629992684 23.211476148612455
7.767687872586853 -3.8117888412159595 23.1824801452403
7.832126412701232 -3.7991425622869035 23.15031794456311
7.878480602138792 -3.794747672193577 23.122856034787556
7.937891660308077 -3.7884425536267496 23.08773278800313
8.029355420344013 -3.7709632028500533 23.036629807185072
8.075876941715713 -3.762588863430791 23.01344649497481
8.154302083246842 -3.7491428785832364 22.971608331884244
8.214448109729643 -3.739641941216374 22.941158283620073
8.25909499578552 -3.739475945763294 22.915096184471455
8.329460073036438 -3.7396832444178503 22.873968757427356
8.43226354056492 -3.7360006473951275 22.823844226308484
8.49616515773467 -3.7334126019422795 22.793916146589144
8.560898137022853 -3.730870961710312 22.76529166492731
8.635822760386377 -3.7277177300621327 22.73219838260628
8.694815614643131 -3.722783308611446 22.70745045773942
8.800772807880273 -3.714843137223275 22.66214650101097
8.850312218950938 -3.7152548941885866 22.63803491231896
8.903616060075393 -3.705426711232226 22.618588256037523
8.971402805088818 -3.6970872693518086 22.590586724838996
9.021393418271085 -3.7000690360232897 22.565509356712937
9.07549486866141 -3.70153096132119 22.540976796083257
9.147110246384681 -3.7054352787132094 22.508071191359512
9.236521427244867 -3.7166416651826255 22.468400666848545
9.339919376712537 -3.7215866192409006 22.43152052186812
9.40531274372097 -3.715746339414139 22.415880462838537
9.457222943723984 -3.7162864425261297 22.409041695923772
9.575778446259894 -3.71043286925745 22.407530182223397
9.627070222865715 -3.713912725428094 22.41074679960071
9.700647940325595 -3.7053323558248947 22.421205615931214
9.817545811987811 -3.6982730389306884 22.44280382563357
9.91351927963678 -3.671949933690469 22.449891967449908
9.981119366759936 -3.6354585557565904 22.474254537460205
10.025361801744761 -3.6289938323352797 22.498589657788322
10.059831743264384 -3.6008871816519665 22.52407851628117
10.10200406509984 -3.5516397128833495 22.52453171620527
10.124955056116882 -3.475661741620848 22.507111235638877
10.105935402086036 -3.4035693642062483 22.495978838522564
10.12177149195434 -3.322907544286396 22.498799900364617
10.13785777877194 -3.230337939683901 22.506558857897314
10.149883919115755 -3.129928190863862 22.513414990643327
10.152422309586756 -3.0374559309332625 22.536923703180236
10.147730487613533 -2.9535280161654507 22.52500894932704
10.131513954499816 -2.875706664626298 22.509783481948514
10.11982720727047 -2.7964780473427897 22.494637098554957
10.108188000341094 -2.698970300138229 22.47564395037111
10.104407515626535 -2.6209420932114655 22.46208114631094
10.097967110778486 -2.566555876056999 22.453010171703042
10.077258514772481 -2.492563899474118 22.434158133775632
10.058312454393278 -2.425632181480313 22.417967282322792
10.037491288280343 -2.345897218085695 22.400464632087377
10.013520623019144 -2.2879976187239177 22.382592271235097
9.991631060210668 -2.2368121092192075 22.367097426148383
9.975595695115667 -2.149674245941423 22.350141027822332
9.970753550734049 -2.0819149025137946 22.341823151019163
9.966423063307456 -2.0134768016408056 22.3342777268577
9.958407708916827 -1.9406595316711446 22.325901667679258
9.947714787358768 -1.8691026552333034 22.31670103887969
9.914991200305856 -1.7517495725489316 22.294214257572172
9.896120928374494 -1.683826450402984 22.28212701328657
9.874635674664034 -1.6043390030065199 22.268716300591066
9.8614653870979 -1.5387688192725504 22.26080888980354
9.847515503177707 -1.4682835178757392 22.25325479285838
9.833669930980399 -1.3983301049230468 22.245759219704794
9.81883177428893 -1.3293786783975112 22.238586977556206
9.8040264254707 -1.2647892386811028 22.23161023385495
9.788908012758531 -1.2009246682178576 22.224680030960133
9.77216939765668 -1.1359441900721148 22.217250159508442
9.75429169025005 -1.068951672773664 22.209884994998394
9.736438134633996 -1.0022469108853587 22.202731472029082
9.715839702510564 -0.934043133148327 22.19424823732625
9.692488154600166 -0.8652531400385035 22.184014457733845
9.674458453162385 -0.8048569877742238 22.17763903550891
9.64623555201954 -0.7015383478151707 22.1691802845985
9.61841328666456 -0.5983873963982385 22.1617180384415
9.60167250437659 -0.5347684606702021 22.157818116374216
9.571511631922471 -0.44345130068067107 22.148810054773282
9.550919411982408 -0.36846678789762066 22.14418620938562
9.531921568165329 -0.2854379868520187 22.142403942655168
9.520459029315377 -0.18789378445053018 22.14862546066094
9.505489840492572 -0.12592880197866574 22.14731503156955
9.488850824625288 -0.07092653500596313 22.143981512321115
9.462123987405793 0.01043355383286304 22.13830552268882
9.444212470924638 0.06683453949605589 22.13492685179446
9.42252732807416 0.15004924553693133 22.133073279126638
9.405755592747429 0.2144172872443848 22.131640978595925
9.394901565695035 0.27732782395885014 22.13524311420614
9.385293213052334 0.33956217808659517 22.13857576842126
9.374848881781572 0.41079527131155036 22.143901239266906
9.36533842706334 0.4959798584257529 22.152407936912795
9.349318874617834 0.619234839265407 22.163757364288383
9.329643291786 0.707799513954849 22.166994438654346
9.312994895186547 0.771858024620701 22.16832506484761
9.292957515364751 0.8443161640480215 22.169538125268875
9.272067786027844 0.9173430123289048 22.17022575670315
9.240274160367049 0.9972645936061602 22.158120629297347
9.211626195317955 1.065326683648263 22.15250911728713
9.182561652723004 1.1275122279002678 22.152696891744938
9.148824503462894 1.1900531086184616 22.150066199111027
9.114365371394642 1.2492882632506186 22.153018475828908
9.0758032940703 1.3129531745419198 22.15855579238926
9.028692131736186 1.3927337687405847 22.17185163549966
8.99833450678331 1.4398049051678212 22.176909122360875
8.939330576797314 1.5159200181785168 22.17168045975431
8.908956630577881 1.5591313610500164 22.17474376819247
8.870820985861934 1.608337278461299 22.180882055815925
8.846171576652715 1.648931527806619 22.20031021982214
8.816619553256334 1.696122717719013 22.22481972897751
8.771984858468896 1.7498852428590483 22.24661784470368
8.733523151219583 1.7936987341290518 22.264433375991043
8.692151865854523 1.8428450672303889 22.287094640696413
8.66163322583143 1.8868064937399218 22.315346444598283
8.624202525250078 1.9478772576625154 22.359460851642503
8.573077456410537 2.0472856041416527 22.428691462839115
8.553117665164107 2.0960475436626123 22.45857234956757
8.534170497440405 2.141854587679491 22.479336100567078
8.51326628131614 2.200540556167545 22.50355867945972
8.493906865687885 2.269879620809661 22.53029723542026
8.482445548849377 2.3248776034212675 22.550311996953134
8.474852274165674 2.375936037254384 22.567142897169735
8.46598894887276 2.4653282272491115 22.594395625473126
8.463022952008275 2.513948947533496 22.608886259067763
8.460911053841077 2.5718649804539373 22.62539372163444
8.460892255308305 2.64558712007526 22.644150965729153
8.465658175632148 2.7601004408169807 22.680171531372814
8.477278560537343 2.84814170508416 22.72557084748577
8.485440055980254 2.908251450168084 22.757501435539634
8.49184588456207 2.958212573514378 22.784555052394374
8.510433129408346 3.033429994752291 22.852674274259165
8.511604364138712 3.0846067748631283 22.86981119654883
8.51434630593885 3.127711700078472 22.890796399062577
8.517919924551837 3.200726253174045 22.925899816482385
8.516524470741615 3.27300810376237 22.949480099772966
8.513196579723981 3.3489508886687744 22.97819871650329
8.508497232942432 3.40380304380487 22.989739717344165
8.50094818795172 3.459846108717911 22.991399485372458
8.491894741980357 3.516247246640668 22.996215246659318
8.479060476694494 3.5890964141511965 23.0006720930763
8.463151950207793 3.6756474113131192 23.011821237448842
