257
-1.7097821750711875 4.314191953950523 15.631696125458603
-1.7803336340932603 4.340793630980681 15.612666894156785
-1.8425248338695495 4.357062988319731 15.599533056487235
-1.9082022570281616 4.372123693946666 15.583798225511863
-1.9621771627051574 4.386089934771807 15.565454147606712
-2.0209202575663543 4.397178865384296 15.54343834973394
-2.0726171250105807 4.400479306936161 15.524791664346292
-2.1595654365770116 4.398954330575524 15.48912323817298
-2.2530085745868256 4.378683789681357 15.452264090112504
-2.3035668269969207 4.366760342752768 15.423578294718023
-2.3578955354952083 4.350437727213674 15.388935368794282
-2.439730083647916 4.309417392241503 15.343191272403036
-2.478073602695847 4.287421785986359 15.31779440087724
-2.5171114734878346 4.261892779502583 15.29052102001478
-2.581565393864186 4.2122514872553065 15.245922689860773
-2.662341102999271 4.149065825716104 15.177998364134961
-2.6999273287838346 4.116023746096181 15.145787358870443
-2.7339511663766167 4.082497952538562 15.119288138510093
-2.7857417588861075 4.028585370146823 15.079239108618928
-2.8333671674476655 3.9754052015910823 15.043590956198834
-2.8720843558720865 3.9291703583895017 15.015352467565354
-2.901101608383092 3.8933443146593354 14.994717004766766
-2.9302200900339423 3.857307364624043 14.973159198729228
-2.9763975261656332 3.7975523236241755 14.938633842607992
-3.0313959316082 3.7172969520128443 14.905418115746517
-3.071285571842856 3.6626486144012076 14.875143347894475
-3.107074839923021 3.61583062820933 14.845290916372331
-3.1667975792490646 3.5463791144465193 14.783553500213337
-3.2130364515832674 3.4951058796745538 14.732638352296632
-3.279033987176919 3.4308798616981426 14.651256557022695
-3.3100707229002024 3.397235787658579 14.616012262734447
-3.3601963572161395 3.340113528552249 14.560057839539876
-3.414923564868796 3.282899484476061 14.496620554507146
-3.45753090632984 3.238638251983463 14.448783415760492
-3.4958408104624743 3.195278980624185 14.411659600687802
-3.5342604958221635 3.153467391072327 14.376895824115952
-3.567764739339328 3.1200516341444025 14.345442203757141
-3.602752655161596 3.0801615695954516 14.318902380766833
-3.639322865444706 3.0378856910871037 14.29263604412828
-3.6785598203457237 2.998658347530021 14.257075297954295
-3.7145774513840637 2.9599954281044707 14.2261657796431
-3.7569672326502204 2.9065087596897237 14.190621449579758
-3.812223675919654 2.83944707901589 14.130814112977859
-3.8432558299674175 2.810034962356102 14.07882802179541
-3.8696198321614297 2.768615216683932 14.03446176847957
-3.8913706684893086 2.7388204493187476 13.984456397244148
-3.9110943388115045 2.696131639446303 13.935441835723012
-3.928319770359879 2.648398900234349 13.884869012185128
-3.9491883328443027 2.556556844513277 13.79370409286814
-3.955536718235159 2.5147396569753924 13.73423419853189
-3.958221856566653 2.4786676705304704 13.682559555012919
-3.9589395476610925 2.4394136471230605 13.641293390007451
-3.95807166152761 2.3942815416624454 13.594778715241212
-3.9534066936965395 2.3198564252242915 13.524061994784617
-3.9460790533103083 2.2541587762800925 13.448868216419214
-3.9403730596957898 2.206786241856951 13.406753416108216
-3.9338696661848065 2.166099275844291 13.360154746848888
-3.925074417594865 2.1185694883349933 13.296769516003629
-3.915514670670948 2.0673094445818516 13.243595636472232
-3.904414561562766 1.9957143871062155 13.197134623748884
-3.8948447071395575 1.9403946422468654 13.155356301431294
-3.8839917381549567 1.873364926711076 13.117914906753246
-3.868598849237798 1.7960910494276177 13.05567595603711
-3.845540188354531 1.6919910841345938 12.96307260892631
-3.8326986282701805 1.6355381120871413 12.901154520409364
-3.822078922023178 1.5922419617898949 12.875495511275258
-3.8081517634391284 1.5273704552762033 12.81977707678142
-3.7892160244681197 1.4425658416425988 12.762879315565847
-3.775819465469536 1.3862265119984003 12.72323840581939
-3.7537410357568817 1.2763955614104883 12.665751927404575
-3.7383852121956638 1.2121832352908322 12.613737383409731
-3.7153097564065725 1.0964688594877994 12.579217826825662
-3.6968835023822564 1.0159444345836248 12.524747385715962
-3.679570478281115 0.943504222996856 12.475398523952219
-3.6624410630850512 0.8982755417624815 12.380584001099969
-3.64890009796303 0.8598052433481906 12.312349337081876
-3.64252706334371 0.8456522132417494 12.262948801654609
-3.6276976503481357 0.8051391614825927 12.156494111373831
-3.6225266868726624 0.8008907597139534 12.088067205920751
-3.6182218545515017 0.8128891743842295 11.991961659313326
-3.6131835139373063 0.8204186991855527 11.919497244076577
-3.599928315651895 0.8180706569286387 11.85235404078394
-3.5760546039665124 0.8314747338664099 11.75336779308638
-3.558295388945754 0.8595428901454967 11.683797906089886
-3.544297803229715 0.885607143342372 11.628243173041522
-3.5275689571324866 0.9142577549033071 11.56864194301862
-3.513667610320799 0.9470035495730529 11.51372652135542
-3.50126852765667 0.9821854601057072 11.464909829170091
-3.4780445574328933 1.041173313280873 11.392202269645383
-3.459057748859758 1.0957654419814626 11.335137505064022
-3.432871781466721 1.1314434184221311 11.279372196767993
-3.3805198632005062 1.122954045122563 11.204906317589195
-3.346836489241613 1.121537960016807 11.157398170099825
-3.3088080242319826 1.1331692797258142 11.100126236825764
-3.2775444280777215 1.1369794191961282 11.05575046176682
-3.2363843848977485 1.1367235651476153 10.999923549664391
-3.199656179434469 1.125215527073903 10.95432856591038
-3.165137491571974 1.1172902581396928 10.91029888004285
-3.113911776120152 1.1177216184721623 10.839844067481565
-3.0743064829203997 1.109562543610426 10.78624710964446
-3.036934702151556 1.0993788273346037 10.735014855209391
-3.001740639931927 1.0785361359389323 10.69122762784237
-2.9526327601224356 1.071354357062511 10.620870904272241
-2.9149020356983337 1.077075780887537 10.563268155657187
-2.86076970409989 1.081361269219046 10.484142130557583
-2.800434410405356 1.1047230431025201 10.392045222546415
-2.765352949547009 1.1328127207577778 10.336057351808815
-2.727411498956749 1.1459660133578313 10.28498827779734
-2.690638499232894 1.157203374689956 10.236661967055046
-2.634975124370839 1.1489030509408882 10.174279848831072
-2.575581432720443 1.1658693422450184 10.107349485761222
-2.529807673712013 1.164729401149207 10.065668883874473
-2.4898015473376676 1.1714426068818553 10.03083539303858
-2.4325652024608404 1.1744333461604275 9.987086496172264
-2.347738768112369 1.1649601961949307 9.927579700029838
-2.2960399014497455 1.1540769142573084 9.894907797982736
-2.2286208608937654 1.1436961484070216 9.85586972404328
-2.1539835831245755 1.1520272474114752 9.81874547659806
-2.06251617095064 1.189414285264062 9.78380111282533
-1.9761343253512091 1.2176515764990286 9.763445354245748
-1.8729656997256994 1.2562314521735725 9.753200407416486
-1.7542752654362799 1.2911871163829072 9.754524055571572
-1.659414058212942 1.3246545548731512 9.763098176048453
-1.552715299638657 1.3566632067824407 9.769628674213923
-1.4913645056730376 1.3719559192701811 9.773369750440274
-1.4287205325751184 1.3860427279956284 9.777889962028658
-1.3700607432833056 1.4156289694483202 9.783819349785169
-1.3088393179070579 1.451362035717191 9.792511308933303
-1.2382160530788564 1.4947766834342135 9.804082721112113
-1.1827406580271553 1.5247916580755265 9.81462174023077
-1.1179584976003207 1.559178904188077 9.828360692821427
-1.049867105148751 1.5966254622398703 9.845882140597784
-0.9865513244856485 1.6252524902623917 9.863754644201453
-0.9287544139311388 1.64537093652608 9.881501010571853
-0.8520528261432481 1.6608369321883933 9.906720916299367
-0.7795907538875948 1.6883374791547587 9.938634256195318
-0.6962664074827716 1.708995941208474 9.97864310818851
-0.617593961890166 1.72262033437929 10.023641715225882
-0.5528234352611472 1.7277507200300586 10.06583104946522
-0.5027868011457772 1.7284459176563263 10.102873168499304
-0.43262267305556135 1.703536637427025 10.155881341861772
-0.36934456655840986 1.6919014211892986 10.219221889364768
-0.31499004602143943 1.681557378999091 10.283024236874429
-0.25930527707569384 1.6563427825156265 10.355757698962524
-0.21919271954926955 1.6282535883473686 10.410942915542257
-0.18596918343339564 1.6112062241795058 10.462852681493173
-0.1532053164747107 1.5986713757722133 10.517784732984605
-0.11825747184227708 1.5911569725202388 10.581604314472681
-0.09081875233727255 1.5996701401571198 10.637608137752188
-0.06236731908781179 1.6086706321308628 10.698897465844567
-0.026692263070097866 1.6078081745183268 10.772110877475667
-0.0008583961352286451 1.6123688684026072 10.830830857154375
0.0285941070200324 1.6159792247722709 10.897947197547895
0.04880622597769291 1.6149483744447148 10.944663270137255
0.06895343787093244 1.6102207683445289 10.990596668968038
0.08845284944032272 1.6033611492134 11.03779622035161
0.10873479377266859 1.5972572260446891 11.083511943938472
0.13244567226520365 1.5935172320757665 11.141241540831091
0.16521485381220513 1.6029608017406267 11.225554267982226
0.1829375192800815 1.6119566748156742 11.272897125747752
0.200268239192972 1.6248942428624473 11.320539472506253
0.22582204282842655 1.6493847315569474 11.392798590076552
0.24957118850335736 1.6701126812195688 11.459714352479029
0.2751527009836279 1.682479177823955 11.530608672246295
0.29838075967738753 1.6760023710215468 11.589471801006454
0.3189769849690931 1.6992323431868974 11.65088155277941
0.35182859578233394 1.7223511649019572 11.741585167765479
0.37133705771063674 1.7228423122770784 11.796588985253308
0.3983797354545331 1.7235231210287076 11.872833224335654
0.4276828709715148 1.748034076509723 11.9643757954981
0.45090117793603923 1.7448417637200797 12.01964111815979
0.4746275976761871 1.7286265146915665 12.081676038082051
0.4943957594057822 1.7236387567277371 12.134756241711472
0.522164429709334 1.7175727260309235 12.208551854103415
0.5487082888632564 1.6981159605567178 12.27817555666325
0.5795622876045883 1.7102913303087974 12.358640128881163
0.6202708045594729 1.7305588948966455 12.46684360396291
0.6470068273291285 1.7586634518585993 12.52918284136226
0.6825947748213386 1.7898684195336014 12.624753633535462
0.7090124796773272 1.8310331554628383 12.689847804001658
0.7427711719407069 1.8649810267150406 12.77726051169531
0.7666590949499041 1.8956192441763444 12.83851673848827
0.7806018427085131 1.9386172671478072 12.867437415806847
0.8026729377765456 2.0085198157581394 12.909575615515159
0.8212449071704806 2.0309494479741637 12.962143083465243
0.8317899906935735 2.04661024223607 12.991403564785685
0.8427224415094599 2.0628457222215837 13.02173697816847
0.8606157694272261 2.089362824349061 13.071544558092377
0.8794300977837843 2.120821425682457 13.134767952174638
0.892999085194015 2.1079178503171483 13.207811441885987
0.9037466788008497 2.1228858562904587 13.256730180844993
0.9148831252851051 2.1394060063105536 13.306344967154224
0.9263740120433415 2.1625916942757146 13.371926075428672
0.9356927391078247 2.1794022994988924 13.442612698334635
0.9443285476369625 2.2067671877501627 13.51920852858159
0.9532507023189116 2.270361459544803 13.590280584200258
0.9593863137590155 2.331712121244499 13.666565867941898
0.963162716711468 2.4043209190795056 13.753080367948051
0.9638560309578903 2.4473747547401508 13.8036209528149
0.9629245993216276 2.487838922225533 13.857224860944338
0.9605775290252216 2.5270312555727537 13.912466824730892
0.9571998378672713 2.5651767199016002 13.969121828462473
0.9532381029082075 2.6028511827869774 14.025278284220295
0.9460489446548395 2.6431106935083197 14.081744027627785
0.9362662950590064 2.6922894734849288 14.147519942712925
0.9203709843910235 2.7658603939896333 14.232268199178463
0.909465732632297 2.8055121697948127 14.281979588352627
0.8988467398966042 2.8413584375075156 14.321693535049132
0.8832333460410697 2.892660678268013 14.370892302092614
0.8584315291886591 2.957280696136498 14.439345239642702
0.8394718993987471 3.000789631124197 14.487815942661697
0.8182622652330682 3.039673216501249 14.531737207146804
0.7932741856529808 3.082915051049111 14.582180414943007
0.7671949611918834 3.128081026000983 14.623435081493053
0.7393612095682864 3.1730348270164046 14.663059768269097
0.7110971153103818 3.213845241910971 14.697992339848255
0.67335968778091 3.2641697776471568 14.738468208856272
0.644908255986925 3.3037608049524567 14.762509547392405
0.6154288710497844 3.3345733411249694 14.791113635535638
0.569149428262099 3.3704531472271557 14.8411410495982
0.5290680768288394 3.3978459170809354 14.881504670756318
0.48242990799362984 3.409402452379673 14.938516133352792
0.44360253192498744 3.4283193734744777 14.977735403817032
0.38499170197661314 3.453809277603454 15.033141980973763
0.34402343059274143 3.465853202842991 15.07305877635065
0.30858920115666244 3.4704169148482262 15.110538424817523
0.25780139582784134 3.4754088676577584 15.162464900501785
0.1996552378373111 3.4974064335110753 15.208257059026028
0.14680916629193597 3.5178630116261913 15.246700332449809
0.07400169465407203 3.539135507819633 15.301683259864813
0.01388928830771885 3.575551321985429 15.333123784586366
-0.028687491602633397 3.613887868555009 15.346117737003919
-0.08349016346476157 3.6329928941734404 15.381727643048404
-0.1501408003913851 3.659522229570713 15.420395516558344
-0.22132106706595733 3.6983424886389824 15.453909833449416
-0.2950175795757528 3.7340685475005055 15.489205114213195
-0.3473638560395669 3.7578013871161082 15.514320114033435
-0.39792286763174056 3.784246792900666 15.535229930813617
-0.4469744958849109 3.8104151067763463 15.554469309416376
-0.5058242987156452 3.8434575395135275 15.574697556158455
-0.5838316854666092 3.8852187527722957 15.59860344210534
-0.6863551384090587 3.92282697836376 15.632494337747552
-0.7398916435334879 3.946067223545414 15.645331772134721
-0.8041853388902505 3.9723733627239386 15.658952634266669
-0.8667744272182429 3.996993703418289 15.67060423510318
-0.9325951411852715 4.023259432198104 15.68044288310584
-0.9992391340975102 4.049815879944363 15.687491564550285
-1.0717507017588348 4.078770762683696 15.692399811306949
-1.1224544618982275 4.095574273377068 15.696405578195481
-1.1859606890906838 4.113440039090817 15.701413044048508
-1.2485555024619783 4.131728797139992 15.704401742907162
-1.3084584221130786 4.156034747902417 15.700339450010429
-1.3666918064766103 4.178837639230826 15.695649003089397
-1.4242630156346987 4.203196342096296 15.687689678022153
-1.495074869986997 4.232377987205398 15.675854409628531
-1.60251686441711 4.275688479642373 15.653707426204885
-1.654717467045728 4.294473905875712 15.643410395541114
