348
17.016159880249642 -9.132747979761444 4.514104231233107
16.95012254110143 -9.138398085857592 4.452048134348859
16.899088811241747 -9.141107053768394 4.40489299532276
16.84688814585589 -9.124155887288406 4.350970073801729
16.792807549932853 -9.115834133263675 4.298836171969006
16.741715790365298 -9.111179425557044 4.252163322179907
16.693969349536466 -9.107374195720979 4.20721267407095
16.634854712213084 -9.10355100439832 4.156993509033496
16.597201229288107 -9.096421177142247 4.122326665855072
16.556814425033632 -9.092233561507328 4.087569402666169
16.474960314772588 -9.108517374848336 4.030325538938023
16.402889630730968 -9.121751158364319 3.981888744513144
16.333512283260582 -9.12402616519227 3.932374181052344
16.28428668932568 -9.131731563537556 3.9005813272913397
16.233825810736665 -9.138294782581866 3.868612351589894
16.166629224549062 -9.145092744984908 3.825833324154667
16.11364576673111 -9.153279423162068 3.7946431332000383
16.0216813390878 -9.167425428935811 3.741843144664495
15.941099759981407 -9.180902547388431 3.697346031240336
15.85315414282219 -9.203778808150261 3.656247712741699
15.763988295868712 -9.219503294477342 3.609968394538795
15.687297166104976 -9.233044241348992 3.5712331155932535
15.628484712268211 -9.24197957069893 3.541589397675283
15.574367581713389 -9.249914310858717 3.514763121565272
15.518624564876747 -9.257165465843567 3.486860640640053
15.461640743957004 -9.263609839412826 3.4580720136187715
15.403184026584034 -9.26979831999807 3.428609703090869
15.327876174953209 -9.275892024033233 3.3896108528813276
15.241261988835822 -9.29021510659939 3.350556669223719
15.147963562310707 -9.305207727813947 3.308449680689751
15.071905231305346 -9.326350534040941 3.2815848013637723
14.9781737541045 -9.354053421988262 3.2493780052124297
14.883071984691965 -9.377326256000725 3.2134381660909295
14.801287480811165 -9.405067897107749 3.1881769848169217
14.718798613959377 -9.426839133651185 3.157765560642984
14.626255489476181 -9.446156392507145 3.1191901885843887
14.54372103876146 -9.45668050750993 3.0794021168822887
14.46615688793661 -9.482376550015942 3.0542677510050673
14.38256168313726 -9.508469365337763 3.0252969415839335
14.287650152468762 -9.546826417880176 2.999758035166254
14.22878708894024 -9.572663870297738 2.9853124616377986
14.183552170467946 -9.598085228645374 2.979601775887579
14.126240412380431 -9.627708516606337 2.968753547670433
14.07291894636129 -9.665237638042544 2.9675852220302357
14.032416868619265 -9.699759283357277 2.972695117708737
13.95418945152851 -9.733678132117014 2.951079819085601
13.887539354736534 -9.770808472808934 2.9395248347706797
13.834102163365923 -9.819086593400893 2.9477670712172586
13.780338317645082 -9.865567363560398 2.953107008308587
13.728354386543014 -9.907025843050818 2.955426973227963
13.650850509288166 -9.968423618828599 2.9558315951068206
13.569856600680138 -10.033974086646218 2.951081162100918
13.522674616644549 -10.07292435292467 2.9467587970052946
13.484200110244565 -10.106101139586894 2.9428752471316724
13.442849951242724 -10.14200555254035 2.9371487012558415
13.375214632925694 -10.190771898482986 2.9170262336590245
13.319654330004527 -10.233945211345244 2.901111584804589
13.279487325593244 -10.263222307475903 2.8869840512760785
13.239775711931028 -10.292236225442156 2.872400633217607
13.200450199294961 -10.32384887816248 2.8595931050132872
13.161584788971098 -10.352594425297362 2.8444669433390555
13.123069089218797 -10.380702460520897 2.828753574836531
13.084860204192235 -10.409591260620267 2.8137530955603243
13.028068712347386 -10.453889199032048 2.7921799658464455
12.972109368096493 -10.49013348719754 2.7652433948573627
12.916820245415797 -10.526899857196444 2.739880864543027
12.853403996903229 -10.56314531898386 2.7076324998070103
12.784846909332206 -10.590580035387571 2.666854450431023
12.724240062160456 -10.617857620220601 2.6360024205265926
12.649839174574543 -10.628374821657808 2.5858594980287286
12.596841220509994 -10.635454208915519 2.5544002031649917
12.513854811370264 -10.648793596809089 2.511380350560076
12.441963261176554 -10.64554047221203 2.4731180793527106
12.375027720820446 -10.647722896476822 2.4462889005907495
12.315712592318022 -10.651557644040704 2.4273202764807262
12.252149669478152 -10.65137587157637 2.4092928337876742
12.189764664477122 -10.641234077973056 2.391229929063476
12.12541682671496 -10.62922986110813 2.3744531306717516
12.043148459702445 -10.623452121747043 2.360318058233039
11.994806957327434 -10.61257135009992 2.3512789063899806
11.928219329093432 -10.599665304937716 2.341355095925282
11.860475334272671 -10.587808845627265 2.3337006229301966
11.774102565415076 -10.569292442244382 2.326057562575942
11.701638949319472 -10.549440547428272 2.3195226197698364
11.606578580655666 -10.516160783591253 2.311943401324955
11.544654129675083 -10.495328004723675 2.3089176254682577
11.480038501341395 -10.472993960428632 2.3069284172283417
11.40814208215246 -10.451121828615165 2.3072732343901787
11.346534805062854 -10.431718447858884 2.3085865778357384
11.275105461876354 -10.407360732588746 2.3107793884978776
11.223045116718604 -10.388412619852271 2.312622671623716
11.148854054225769 -10.352567500834695 2.3138909849463065
11.08919120269976 -10.32192760801998 2.315250868365604
11.030975050869198 -10.291699232292068 2.3175125878319314
10.974190495739453 -10.26278457179302 2.3209372744210963
10.904009736290043 -10.226690869941244 2.3261915975693253
10.845984613249138 -10.187132508953805 2.3293943569815045
10.795183320794438 -10.152254335974625 2.3332902052462057
10.714632642845604 -10.107950429921683 2.3453535136650228
10.653696090584567 -10.07099493224418 2.3565365645998604
10.59502247224629 -10.033575875829975 2.3685703633341717
10.552505052251812 -10.005923751794693 2.3781559544902375
10.479378487127505 -9.963098360920714 2.4001992086984636
10.436950735678028 -9.936688570286886 2.414152442474519
10.378380753858117 -9.89418757806316 2.434974270910823
10.315798879157098 -9.843770481203435 2.4590350626834887
10.266159637968824 -9.810051469077575 2.4847499330323686
10.216547466078142 -9.775765219184827 2.5108392209724766
10.164482929895298 -9.734698739963939 2.541854522866805
10.109419122651707 -9.688399168060013 2.5788290863544248
10.045939571415188 -9.624629267778598 2.6282897658476596
10.008135391113845 -9.583892509350068 2.662508635813225
9.972218937997907 -9.545711107155295 2.697726886830649
9.93870587958197 -9.507042374482264 2.733231938944016
9.906224218100226 -9.468072319901687 2.76946970647705
9.874353605624476 -9.42988200687769 2.807208278864943
9.842842083032215 -9.39329312331392 2.846961247701609
9.811810576334608 -9.358124506206163 2.8886610922917946
9.771605803421865 -9.311942666260371 2.948607494493462
9.739706552230102 -9.278157616551528 3.000934997709983
9.710723666797838 -9.2458383849314 3.0540728234483776
9.68840707280392 -9.212985331746083 3.102600311577472
9.663555516478096 -9.172188452676806 3.166261272078213
9.648171426086828 -9.147865510820584 3.211138947112042
9.628069151643972 -9.116805157052134 3.274772656118893
9.611513818861999 -9.088738269341725 3.3399867548230073
9.597141062835973 -9.061249240196389 3.408307547517788
9.588996776571271 -9.043015327951679 3.4557756161765685
9.580352035637327 -9.013813608372867 3.5331199469546615
9.576496943743289 -8.979910771444349 3.6172336270950236
9.575753019113886 -8.960622087047945 3.6663337549694432
9.579394853186015 -8.91952720065273 3.771499545480861
9.582671456790088 -8.894671019671687 3.855492962062179
9.584201533769997 -8.88030910807512 3.93659409365544
9.592622110556052 -8.85353116421825 4.020280456952891
9.600472669544427 -8.83233461968651 4.07656869738879
9.615504454247715 -8.794974882520393 4.150729474063327
9.624695118269003 -8.773661906310334 4.202019550976349
9.638313481983133 -8.746904701535527 4.282121312301417
9.647372164149374 -8.730489497733451 4.336595697834257
9.660213921225944 -8.7094932057949 4.405105686257299
9.676192538473588 -8.679803176990657 4.470279992983004
9.693666831108109 -8.649489492221228 4.535353119243624
9.719657496716884 -8.603694645287618 4.625523712929192
9.740029039622494 -8.5675994189894 4.692962412459922
9.75324526659961 -8.556097976105018 4.748175858487199
9.767189485983087 -8.542765628740433 4.8060975547714815
9.795610085506132 -8.515446874399117 4.9096910208350355
9.815435854043331 -8.4948905967921 4.9771817342623255
9.839894649425323 -8.455467710134315 5.0290680419125575
9.861795866391809 -8.418794886633293 5.079371763573244
9.886948309637184 -8.390879246514515 5.139927460377086
9.90978665430482 -8.366191173775558 5.1942979518483785
9.933391937988363 -8.343785660599988 5.249408692419339
9.957249284464474 -8.32417322376945 5.304553248581145
9.989739743250139 -8.311688773345402 5.385526423867878
10.023068726672859 -8.303378240058802 5.465129994590026
10.054822621327414 -8.294356030298744 5.535224389984242
10.096308194686417 -8.27063262244922 5.609092685060398
10.126300204885405 -8.243841722740122 5.650166927730135
10.177280247500104 -8.203110608050249 5.71634316701709
10.227276854610258 -8.172566716471593 5.779974398807655
10.27454527192963 -8.147053760667266 5.8380001065928475
10.31012104570247 -8.139795275202289 5.884028921814085
10.34703890036708 -8.132125436999289 5.930757290093666
10.39972475700051 -8.124537791167121 5.994226324963192
10.447244674584844 -8.109999874078806 6.044829578328773
10.489713032836033 -8.09563406300613 6.087759564078029
10.550431868129607 -8.063873774873603 6.139472655008106
10.612294031657328 -8.039966812628975 6.195695183080764
10.648767939728152 -8.024111864687828 6.227148512879943
10.687274913324078 -8.008485803261912 6.2608988843929385
10.751687043963718 -7.994244350357241 6.323778872325223
10.807186277244986 -7.973171910685463 6.373505516823455
10.899766010511618 -7.9273977593148155 6.4470810467998625
10.941801379180115 -7.902147612252274 6.4782325584776626
10.997631914319456 -7.876595696723235 6.523519353512382
11.05627812544292 -7.852493857282311 6.571888689180385
11.110594643534313 -7.832255820815635 6.618273985272259
11.15140750429142 -7.81814565629725 6.651089840653013
11.19368051397083 -7.802604386813623 6.686501783496338
11.233729604405745 -7.788058916190553 6.719132942390376
11.296311033125301 -7.765328015136718 6.769798239270116
11.366589983066257 -7.741576128191196 6.82731389603221
11.451559149975752 -7.720110012433749 6.900847217506167
11.478404134156968 -7.70589835820489 6.918281589500287
11.54686330206183 -7.667451147596689 6.963918451841547
11.595898730469703 -7.6403778667231 6.998067687090019
11.665937398314108 -7.625848484878698 7.057588845315905
11.704049127313597 -7.613901843697609 7.089105509768666
11.804254287391808 -7.5703284513395195 7.160149411742298
11.877320690301653 -7.530020774211894 7.2080683611342184
11.924930520569415 -7.505873089029907 7.240507238585215
11.968059471917547 -7.48666232381053 7.270598323790635
12.03175407774454 -7.464406018632935 7.318355108073588
12.092843696544001 -7.438490536993025 7.361326488212557
12.145363044162421 -7.411053740746042 7.396358303118724
12.184288295703809 -7.391860280595167 7.421479629917316
12.228711866612374 -7.370380108687994 7.449841434117834
12.309029341328722 -7.345632555944088 7.510217090734088
12.367304009447873 -7.325560222790929 7.552330150002398
12.417852730341293 -7.305359420181774 7.587023152601921
12.483499233955522 -7.282337084396112 7.63317704790286
12.541007577666294 -7.261403327124024 7.672828864772837
12.59549627692106 -7.238379588527208 7.708709717353441
12.651585456301069 -7.205936027997294 7.741429590094999
12.704934983804522 -7.174934507269099 7.7722558202793675
12.758478952326323 -7.149275733520178 7.805073904680535
12.820934791139367 -7.118819777758165 7.842835536423722
12.884549156984638 -7.085016695134066 7.8793656465016735
12.93364784896892 -7.057104289193345 7.906544461300973
12.981707886965992 -7.030624231885553 7.9328410462300365
13.046200300838597 -6.994905543323861 7.9676641616230786
13.108787076593432 -6.962072301031141 8.001140737697567
13.15185638612988 -6.939441591705472 8.023650296227478
13.194048605132052 -6.919305623106664 8.046191260016833
13.257998500846545 -6.893892761648302 8.081103995825936
13.306808310422442 -6.8719449676353 8.106156802105462
13.355585585554453 -6.84974710190929 8.130097773360804
13.402566319209503 -6.8271089719171565 8.152318470153597
13.448185881058611 -6.805622561562884 8.173157738669188
13.492336641601517 -6.783796023475683 8.192233342733699
13.535351093245714 -6.763236932908895 8.210235768256313
13.598974187675113 -6.736521384204708 8.237232967328046
13.661793660228222 -6.7146737412821595 8.264190277598145
13.7222880770423 -6.6965737152603415 8.28955574754261
13.782460150733275 -6.674896712448695 8.311516915501796
13.827839544627745 -6.656688293320676 8.326274175771973
13.89347502886987 -6.626353042465083 8.343324010089596
13.948763080355816 -6.604967756974731 8.357697567168088
14.002941084498199 -6.584041311702401 8.370927658094976
14.083336589116664 -6.560685124002961 8.391514037860226
14.13923410314773 -6.540944748868067 8.40235449203041
14.23484505577218 -6.508675419354481 8.419612706136258
14.281248887650447 -6.48366319318363 8.421508209953151
14.326113571949694 -6.454554714464112 8.420525873205738
14.403264677112825 -6.407241608708117 8.419561337257898
14.456189765242407 -6.383929067360307 8.42336548051959
14.5214276160465 -6.346972401475953 8.423659371706256
14.599672669567612 -6.305013234432434 8.42522744079684
14.685897956636008 -6.258667630022862 8.424706633570965
14.742589847214639 -6.225796861407706 8.421295625825815
14.8009038292455 -6.192327831438807 8.416823837728982
14.86556746879644 -6.15645315708734 8.41099243826193
14.952831352575037 -6.118945894456799 8.407544744834437
15.016233658219466 -6.09896136312537 8.408271801819003
15.097620426082122 -6.073874714998502 8.409027985406132
15.157634724025685 -6.058759400956554 8.411465900875891
15.206889767767786 -6.04608382754152 8.412166268626327
15.276642878596668 -6.029362436405537 8.413296312502903
15.355845824367071 -6.01879209035448 8.420360591830375
15.406447922474156 -6.012265772636437 8.424458376678677
15.48794338798245 -6.00305846492791 8.431975417482823
15.557042207623091 -5.992117258546897 8.435292603664577
15.631240477195593 -5.982977054093429 8.440105826540574
15.704800559758366 -5.974931545732432 8.445101234302774
15.786692918060824 -5.970926260245254 8.454062828668535
15.89952943662148 -5.974193544174274 8.473037988879932
16.001391124517294 -5.97806720280276 8.490084186541587
16.081100420589205 -5.985188866918592 8.507139311236573
16.140162289594723 -5.984650601336695 8.512175396825738
16.199654775362553 -5.982869708125027 8.516058960305758
16.27729918163764 -5.982293968797028 8.52140901856727
16.352818485400448 -5.978507815969455 8.520610268962654
16.448457650621858 -5.977162386763207 8.519629461710773
16.532181375686026 -5.975202929386293 8.514904750715557
16.615363768882347 -5.968379260808994 8.497590718920973
16.677828851808126 -5.968991077177361 8.48377985683368
16.752685097478434 -5.979569474476228 8.465589507768893
16.80383469243211 -5.989151057710866 8.444107473899363
16.849522149251477 -6.005779206737025 8.421898483240302
16.910122175982274 -6.038379448032912 8.389842253484536
16.97599122124697 -6.085319203229759 8.355149740368606
17.04502477866729 -6.140540713109499 8.320178330891698
17.106880042747136 -6.190447726734317 8.284931464879788
17.159563618109054 -6.2338439007397985 8.249474593780993
17.202731372330003 -6.272238743612022 8.22281052373742
17.24812804699186 -6.314829129923047 8.196175428955678
17.284410311523274 -6.349156104804696 8.169444056421996
17.325011737665633 -6.388761576593885 8.14108185361902
17.36657567409822 -6.432076762258341 8.111718478872474
17.408900046744172 -6.476579843961022 8.081289866911947
17.449757726382426 -6.520424726991638 8.047184588270623
17.48562576866974 -6.5602826004683825 8.0154692076651
17.534996065460188 -6.616655475511615 7.967795647951297
17.577304279169276 -6.668958325066371 7.92842934612448
17.61760277366353 -6.720759095257974 7.894572737740463
17.660976353633036 -6.778660706723136 7.845848220999949
17.690245042739235 -6.820418774620561 7.81652587158616
17.726396394241085 -6.874816189306034 7.781174841408541
17.759728350940062 -6.927123719015801 7.742481468684661
17.784261916690262 -6.9684971694505995 7.71028471221892
17.818687009438367 -7.03039164244215 7.661357709283804
17.844360661687087 -7.082255813361075 7.623390224268272
17.871066694556887 -7.138001983756298 7.584065625652462
17.891423796808237 -7.18677891576336 7.5511068739412845
17.910203391792365 -7.236750133890495 7.516168590649089
17.927717058229998 -7.288619047694952 7.4802860647407545
17.942605938339206 -7.339429230444966 7.44095450688283
17.952854656044067 -7.380112593231005 7.405371777543964
17.96142260045823 -7.422762259856127 7.3581567339462755
17.9795661972116 -7.499905676861931 7.308517373413814
17.99048700251736 -7.556089450081012 7.267408313138354
18.000284576978878 -7.611576695024461 7.224760553342962
18.007480612913728 -7.656706391997152 7.190263680982245
18.013633887533018 -7.718550303169624 7.1335113471685325
18.018772021075428 -7.7687774525482824 7.090473272510339
18.024936857152646 -7.858017301026062 7.008932468979653
18.027331240106506 -7.9246347982310565 6.9434558360964775
18.02865690020656 -7.969455982312055 6.9007796622348305
18.03020131344362 -8.046799091523152 6.827283634988854
18.034433086525624 -8.12429047895034 6.76194110619636
18.034888179070204 -8.175149709435171 6.717322473328375
18.038080535280425 -8.245341018092248 6.659928106098677
18.033340854592026 -8.307287036016067 6.586003131699412
18.032105471421154 -8.344939382289539 6.546083351373413
18.033007870547767 -8.416991699247383 6.479646246183011
18.024799166322854 -8.481180386752545 6.391659842623232
18.021787065451214 -8.531426643097667 6.3387405576202855
18.01725544780811 -8.57468921445168 6.285092529080085
18.010799026663598 -8.632159712938801 6.21843261948395
18.00207205309122 -8.69528861212233 6.146530902590829
17.993795474572952 -8.738797579180137 6.095124029413112
17.982137002306438 -8.771663996284417 6.037831259510659
17.970021238248215 -8.80491337219717 5.983920446985019
17.958134504665836 -8.841939242843349 5.934541067982051
17.941839644421517 -8.875111038326288 5.875935246718457
17.926075518170666 -8.898025632273868 5.825832663994671
17.910658951919327 -8.933153450559011 5.7804837872888175
17.88525728374947 -8.961430493010862 5.7121754975797945
17.856896063293128 -8.993016343302507 5.643853671531913
17.815429223948982 -9.035786620795399 5.558390261413825
17.770984154739764 -9.061570382455741 5.472064120712934
17.74323664585378 -9.0761951633373 5.422612018217249
17.71119711376323 -9.08752176044332 5.367562788670508
17.676127472116153 -9.091774547450758 5.305713379327177
17.628826760486437 -9.114727025748707 5.239460742936059
17.572497397083733 -9.132189880072975 5.160359123844316
17.53672896031965 -9.140032882811798 5.112069390085843
17.499986454373417 -9.146738809868769 5.063977976435497
17.455997106724066 -9.156591124115675 5.009042519601776
17.42351514069847 -9.165012915583493 4.9703327736825305
17.365177666588206 -9.165807577664488 4.898763793604411
17.300568104839606 -9.173680536217987 4.825202395018925
17.254817241730276 -9.182065704266119 4.775292164664124
17.167052831992507 -9.175392751630351 4.678417227797427
17.12668715682159 -9.167050109654436 4.63396852358065
17.08141835137267 -9.14860649179943 4.582593705225905
