319
-21.573388193862005 -9.250127662764125 3.031006842628802
-21.61704200256095 -9.218684350716948 3.05188034737156
-21.65608122928156 -9.190060922777448 3.068523887392586
-21.719626544566264 -9.15877114301335 3.105463216285283
-21.76625531341193 -9.135635361209053 3.1313999037327953
-21.827042936919348 -9.100967090963167 3.1611509888731306
-21.875159411347497 -9.072839902408951 3.183910085894912
-21.949155774723614 -9.038135675703264 3.2223561478622784
-22.004580987521372 -9.029939503654738 3.261697083856731
-22.05368945805704 -9.012114606485484 3.2905883438566144
-22.138212615293668 -8.988997450976479 3.3432393420801834
-22.218428673955074 -8.993132320973082 3.4087120430577267
-22.30648421344385 -8.987216683712505 3.475662441294877
-22.388436244215637 -8.980536445104562 3.5360441089300263
-22.448842541262582 -8.974604326805936 3.5805539709865997
-22.522001538623943 -8.966970762897692 3.6331163284968717
-22.59247442805502 -8.962901967155986 3.6887537338694933
-22.655737159236452 -8.968326823971996 3.74517066169809
-22.723305757149305 -8.969690256946993 3.8006042322736033
-22.80576463700316 -8.938551818615142 3.847227370344232
-22.87369625805636 -8.922377241728862 3.8919400063276575
-22.945271726789823 -8.900666215055224 3.935973952492203
-23.036823351922504 -8.868802581622703 3.989566167360317
-23.159938547648522 -8.816876647132968 4.054414374328612
-23.23598852451176 -8.785089815412206 4.094087984900803
-23.30770067460117 -8.760191934927166 4.138466002903505
-23.40117118470816 -8.720872392438995 4.189601884688038
-23.465762742014867 -8.696444432547004 4.2262971290802165
-23.508965281593785 -8.674148858452645 4.2501176120165844
-23.59614170682201 -8.636036372675477 4.299948720507166
-23.662323641749072 -8.613313164116281 4.345515190495739
-23.724557547142766 -8.592985331860845 4.392085025287426
-23.801753857819186 -8.568520874517034 4.453088010078959
-23.851151497248917 -8.54639639822604 4.48731776514255
-23.89559243062818 -8.526302303460275 4.5194738001824675
-23.941141717465076 -8.505874300518723 4.554258438044692
-24.00787672040907 -8.47798880921774 4.612229555080307
-24.042708740767715 -8.460420593195224 4.64276089488489
-24.074372182783193 -8.444451455348956 4.67051433158859
-24.136447213832454 -8.409763088246043 4.727339459464568
-24.175450909188157 -8.3899153158312 4.769612488471687
-24.231515504444282 -8.356873092520642 4.830253261304679
-24.28220310302864 -8.316768621659666 4.877556079850036
-24.347524500546143 -8.260456100542232 4.939792846169317
-24.378834799491376 -8.232781391788688 4.97443632631681
-24.416123724099045 -8.197379568799958 5.0194232405978925
-24.449834059221477 -8.164978497748901 5.060324486935983
-24.492258727432155 -8.120447875205716 5.122725298295884
-24.520734694045924 -8.090258041673067 5.166369566318485
-24.558426597531408 -8.044613670230905 5.229445344357788
-24.587378549467406 -8.00531908171369 5.283941054794398
-24.612057141487874 -7.967971984251816 5.332923385431781
-24.633900265348046 -7.932032420800295 5.382477822221265
-24.652742194188924 -7.89721028753297 5.432821255095282
-24.67266284157217 -7.85548960012812 5.4824006764830076
-24.693206336196173 -7.803060463274756 5.543421962044853
-24.71539759837002 -7.736153917234753 5.620783010246739
-24.724648215174764 -7.697502824592458 5.666931474744038
-24.733580791429944 -7.663634577200707 5.706688519348593
-24.738737485622412 -7.637850827576598 5.7374572293467905
-24.745033002317548 -7.60034419364689 5.78953873614001
-24.75085126424521 -7.558097011611457 5.870587223889834
-24.7538961250101 -7.504297234938937 5.942315478880807
-24.75399180858281 -7.4588031575073135 6.00728118902482
-24.747063546734662 -7.415343376909935 6.0842814238968295
-24.73303567348633 -7.363812694444853 6.1747651969041915
-24.721457455117207 -7.342195840674439 6.225360517116893
-24.704916429669765 -7.311955126123488 6.285855016349768
-24.67661141879965 -7.229009978778354 6.36178182160973
-24.658353187272276 -7.206132553322863 6.409259711614968
-24.635641546517494 -7.1817454143944754 6.464801072410744
-24.602618779895856 -7.138858669366924 6.535134631282935
-24.57600567640131 -7.103654399991601 6.586069071938594
-24.541634119690908 -7.070797575264471 6.64980033980578
-24.508729427466367 -7.041378190016619 6.707722638633717
-24.473711894540333 -7.013509247602837 6.7645188352782375
-24.438199441127402 -6.98872713144461 6.821611070919051
-24.401702241521548 -6.961281581761019 6.8746592944469445
-24.347284356013493 -6.920561130408164 6.948262410035193
-24.294760255198703 -6.894783279131694 7.018184970956479
-24.262421236812923 -6.879896928326286 7.059218068957879
-24.224692697527207 -6.849352526876124 7.097917556242067
-24.18066792870681 -6.811705950324956 7.1395527361257445
-24.131497565125485 -6.788980679613513 7.188535722321589
-24.06570465992555 -6.7495967439728854 7.2383461503286
-23.997587544567082 -6.69832156573294 7.275363042033654
-23.950203364285844 -6.660596936987378 7.293900512843071
-23.905672788058933 -6.62450902982876 7.307548043014324
-23.82464929173356 -6.5555037969591226 7.323758471631663
-23.75395232220132 -6.521053501064744 7.3407042044704855
-23.683254190446018 -6.4822710336528315 7.353299273756409
-23.619081288702287 -6.455591424956132 7.36573958228042
-23.561994104285255 -6.440944554175793 7.378557045798602
-23.49800812709726 -6.419167334352543 7.388147530485778
-23.390574534346655 -6.387491790774341 7.402430942686281
-23.304414371150994 -6.371740570092513 7.4166412907296895
-23.248376249808864 -6.366108913553693 7.426822187233947
-23.158145919986396 -6.351879410997175 7.440914464497129
-23.107295711462914 -6.333466286254616 7.44295827535573
-23.053303425875814 -6.31391617682841 7.445127415216396
-22.993415591563913 -6.291795807127317 7.447139899051205
-22.9264033832877 -6.287293800742489 7.4577658242527205
-22.869670520986585 -6.283718084066941 7.466420556320054
-22.799302754898996 -6.266146381765375 7.468933107196256
-22.73041436323206 -6.248886535004413 7.468036997692781
-22.62341121517956 -6.213619136671637 7.456726089900108
-22.54334289843718 -6.190396308488518 7.4425037969773875
-22.460048519257494 -6.174703257630947 7.429900219589624
-22.3778626169613 -6.174214698727426 7.419428119884492
-22.30760661568017 -6.173330633896201 7.407655465984154
-22.270912144581636 -6.172948575963983 7.399929540030222
-22.222987293156503 -6.172449458148696 7.389839130333103
-22.17055218650701 -6.173597251793668 7.377956585212845
-22.113181411332846 -6.175005767836936 7.364161830482333
-22.060006955227514 -6.169268452214482 7.3457777105091075
-21.966925201889396 -6.161386792593488 7.312675958092201
-21.89843352338554 -6.160979199279462 7.288031683981599
-21.844161512539742 -6.163912710056467 7.268867476648137
-21.788328291680077 -6.167891093605928 7.248721850079466
-21.731064358462763 -6.170545868998431 7.225931815703074
-21.68314417873857 -6.1727911914299725 7.206203570573242
-21.62072931519863 -6.17561558629259 7.179897839105796
-21.550996343047448 -6.182683071391872 7.15151937027793
-21.486344641120542 -6.186943448334771 7.123285348246
-21.40603921032653 -6.1877425279135645 7.083825925163894
-21.336798744816143 -6.189630215047266 7.04967724939449
-21.2685535663589 -6.206794818575171 7.02623261938955
-21.196129276508458 -6.225202171260549 7.000961259986096
-21.13274093045453 -6.242267483195148 6.978666863491426
-21.058042170108948 -6.265492090145578 6.953957208897352
-20.999446108660667 -6.284031944804763 6.934683268797765
-20.930007892213677 -6.301981040235171 6.909470517346579
-20.879464511845857 -6.312211120219317 6.890636173079885
-20.80978049225426 -6.328584291545835 6.8625102649593686
-20.743205908676675 -6.345870119142859 6.838429337418878
-20.673848254727883 -6.373374268804811 6.819070672491844
-20.6080513484878 -6.400325411103379 6.801921631207287
-20.55735115420659 -6.421171253152354 6.788984255334084
-20.515062605800672 -6.4398266435957074 6.778289444959947
-20.4235974913487 -6.466679504852987 6.750592452698512
-20.33964584708358 -6.492201030850032 6.724823512620493
-20.2680809668345 -6.51247885345451 6.703958073625441
-20.19681986723367 -6.52861983750547 6.681307933009594
-20.12946985122042 -6.543638163659067 6.66037399068749
-20.045853227658338 -6.562236209116412 6.636622354018756
-19.96325962438609 -6.575951158688873 6.612071865694117
-19.896378993726223 -6.5838101148204515 6.591271522880388
-19.835494314115987 -6.591074264552265 6.572863472425461
-19.77971587167837 -6.602974857480396 6.560177833796254
-19.712531087149998 -6.613302485897352 6.5428306635524525
-19.638339135671767 -6.627225282177818 6.525495140134762
-19.56509913610223 -6.647212697025313 6.511868383310451
-19.4753638410371 -6.668227266417011 6.493857281444617
-19.38695530293693 -6.686914007275058 6.473597231403868
-19.299825783417845 -6.703579584619584 6.451841206872761
-19.240236881048236 -6.714333968521799 6.436314717085401
-19.179512322147424 -6.726052443516901 6.419847842982381
-19.130098597143228 -6.737560145974372 6.407020091826951
-19.048744656131834 -6.759166725874673 6.384038341925374
-18.994808283957862 -6.772364362537638 6.367893470615461
-18.91663307747004 -6.80162332821822 6.346868581365826
-18.84372351676518 -6.824015031168206 6.3201486270327
-18.798910615686342 -6.841592346586836 6.305965905436356
-18.7326276116742 -6.8671284719648344 6.280581841203807
-18.67939136175497 -6.886195578128125 6.25697785574861
-18.625946779742854 -6.90008392944111 6.227612004930463
-18.557328451749918 -6.913053770355481 6.1857124510335115
-18.486584689531114 -6.9256879310914865 6.140306361512925
-18.43129344988372 -6.935751970833785 6.101665193451898
-18.35814001523874 -6.942205637355773 6.045415024735302
-18.304729049112336 -6.953438827192654 6.0059834339763105
-18.259736517274685 -6.968734859604482 5.974307368367762
-18.199121318890832 -6.991506158371103 5.93081554977613
-18.147106906112256 -7.0129645083491 5.892845356842951
-18.096881417040123 -7.037014261150081 5.855915378240028
-18.038102333741666 -7.0625345710820495 5.809932794506346
-17.97793033738635 -7.086722586469419 5.76124053922807
-17.9062599738907 -7.119325387989577 5.7008055383374785
-17.867900733263088 -7.143762122414904 5.670326374874722
-17.81619875507647 -7.1763459335264335 5.628204484424344
-17.777197858167963 -7.20304716852572 5.598409544431707
-17.729401142309484 -7.250294280414473 5.560816673688082
-17.65910194612356 -7.309939333594775 5.502626531756363
-17.601786480883707 -7.3624597369980656 5.45526499087795
-17.55563282708934 -7.406535499622439 5.417721085568939
-17.517088798594123 -7.440649905057363 5.386141527423052
-17.476513616667948 -7.476313947370832 5.353290865174173
-17.406858900642053 -7.5411572005546805 5.29802042508982
-17.343584015650045 -7.570096456434514 5.2391728272403615
-17.297105583350305 -7.617543067006684 5.20260269420812
-17.243780161171056 -7.678306396423516 5.1611378270270905
-17.177701189581715 -7.717685920133706 5.096988083185488
-17.1360815288351 -7.761075158494316 5.0606240207103985
-17.08544600273385 -7.7969629004629635 5.008416021069525
-17.024980495863883 -7.815847006134218 4.934010733964534
-16.990415034742046 -7.839116526766928 4.891285763297137
-16.94742933370694 -7.869840746272905 4.837498988173495
-16.915903247919264 -7.889696410740621 4.793549917461884
-16.88835818466882 -7.909762544598617 4.753093835620444
-16.850879693095436 -7.95625620583215 4.699383404395542
-16.81985272209185 -8.011608738108777 4.6518866196760404
-16.79347723969867 -8.027676792795006 4.6035735834601965
-16.77289961592944 -8.06081929245344 4.561576986378289
-16.74858845354361 -8.098861139293302 4.505847737726635
-16.722080486484238 -8.125255564149592 4.425373584502869
-16.708262694538288 -8.152188893200504 4.3784783372320035
-16.697567717727992 -8.181316226638597 4.338774020050271
-16.686010223978165 -8.242725632485364 4.290337419486362
-16.677954903079534 -8.285666939947344 4.248416190852922
-16.669712494955945 -8.356180626930076 4.193377689888228
-16.663273734323685 -8.41311425391427 4.1582387635809495
-16.65960334482943 -8.45616506027504 4.127011150977312
-16.65148368967603 -8.502569526517497 4.053524338403976
-16.647587154809703 -8.499113666625469 3.957031187727762
-16.644825148516414 -8.509011523525366 3.8862046299278172
-16.643663389264407 -8.517562075736638 3.8358251344098573
-16.643182307326704 -8.529801783912411 3.7604665519189493
-16.64414100522068 -8.551169162540157 3.65234754829247
-16.645875905591616 -8.57522738029292 3.546485848280978
-16.647896100409813 -8.59039583850413 3.4775821574040027
-16.651262535213405 -8.614276807270496 3.387129742815919
-16.653533268694986 -8.639757654635119 3.3100845131854686
-16.65469183215998 -8.672925259558802 3.257794689733518
-16.65470039135749 -8.714328841655714 3.1911939722428397
-16.65392630170369 -8.752212843357444 3.1313926294685555
-16.65220888272381 -8.79606029281011 3.0369699107919335
-16.648083874647646 -8.847021485603612 2.9471147010391268
-16.64159355803506 -8.906586399088965 2.853039311202685
-16.637255844354694 -8.94248493639406 2.777940469272025
-16.63675211980726 -8.970429254696848 2.6767414354392787
-16.637701483769714 -8.994892760136839 2.5991825551249876
-16.638072088654983 -9.027833005950034 2.518262426511377
-16.64225162378036 -9.051212333189216 2.4488641237552677
-16.64764856426069 -9.089118632628495 2.3826271566546966
-16.658878670663302 -9.132100448124772 2.305641870672625
-16.67769545233037 -9.166861890791743 2.227060683426349
-16.693678200653352 -9.195670642148183 2.1763837743576633
-16.7130743973362 -9.22821600605625 2.1225112827455335
-16.732779592292037 -9.266760021102234 2.071682105727236
-16.75071621798985 -9.299026748481829 2.0295829016623266
-16.770973524059084 -9.321906188833466 1.986516991605194
-16.800162456459276 -9.352390240420732 1.9326024164714966
-16.832167533947114 -9.390094295505271 1.88085243336262
-16.874598872561197 -9.433059180495365 1.8218628733084743
-16.925318323850977 -9.469829286049235 1.7635648790147673
-16.9662158176495 -9.496662399732916 1.7222264428865932
-17.016592894556826 -9.529786512390174 1.6790570235135363
-17.06899973863491 -9.56554608223917 1.6408070761054478
-17.12542716412116 -9.596484035911281 1.604199947248211
-17.204162872215505 -9.625294582404894 1.5549459000339567
-17.27459330855377 -9.648544964847364 1.5184555354300828
-17.353215080680936 -9.678450691391781 1.4804321580910607
-17.41592167906102 -9.702125645320457 1.4539704879048694
-17.49250023019166 -9.73641555688343 1.4241690927494801
-17.552832581635457 -9.763175194240478 1.401880843912184
-17.650125455388505 -9.815076548060134 1.3720664015348571
-17.729179277143626 -9.843778839539553 1.346514004673593
-17.777761437091833 -9.861260602863027 1.3310217185827327
-17.862543110603866 -9.89238430550626 1.3055720801181971
-17.94421420158625 -9.920851155353144 1.284954289895829
-18.02107421807176 -9.955675014495624 1.2691673649380748
-18.117676280136344 -9.999444176319287 1.2519402278050995
-18.188171441266775 -10.038472021395016 1.243703946952503
-18.254813090562923 -10.072021023170823 1.2365513220650008
-18.331839340221634 -10.10036376642301 1.2286333466102901
-18.423138507807543 -10.1178348596552 1.2189557912081943
-18.512680119176892 -10.135980010290773 1.216742407978642
-18.58474290263207 -10.183960292854556 1.228012488285814
-18.647037190945916 -10.204363538571275 1.2341363771974878
-18.7116545980258 -10.218607877561425 1.2408422071846656
-18.77380043295795 -10.242290546391471 1.2565128571681754
-18.836431814024102 -10.234230853490663 1.2605711682325573
-18.89160776124216 -10.216996059723684 1.264250718929821
-18.968875372668293 -10.189695007814668 1.2741171380592728
-19.059153957807734 -10.15941572881037 1.2944916001180484
-19.112614274689726 -10.148493488625421 1.3146261983834053
-19.178525447257062 -10.139897202318785 1.3463642766184272
-19.235357079740663 -10.1365766266948 1.380876188953538
-19.279567328589714 -10.130713539112229 1.4071660845101324
-19.3288801005925 -10.122327056700362 1.4373277915257878
-19.4144892498463 -10.106716398062641 1.4886071920910826
-19.49113994908739 -10.103794300608692 1.5410296408613906
-19.58513125262011 -10.070397505527424 1.5975289200314222
-19.64470119048169 -10.055954178943391 1.6379420798025555
-19.68920508258362 -10.041662492849689 1.66827102263509
-19.753776733125015 -10.030376479817257 1.717311405809478
-19.801972025780003 -10.015888193064903 1.750793751547607
-19.861973953623473 -9.980068265854161 1.7850345461897676
-19.91757833208672 -9.940080626163617 1.8128766034223354
-19.957023857230666 -9.912538599801287 1.8323124722312634
-20.013708133323732 -9.877142364066252 1.8664171459632977
-20.075371225741744 -9.839535122535548 1.9035710748227976
-20.145904849892 -9.79203095068884 1.9448133890950574
-20.1963978327265 -9.755623902569244 1.973133558037535
-20.24813196995168 -9.719056561494208 2.003358337890266
-20.297661202785104 -9.691922802908646 2.036704640515457
-20.370477301545616 -9.666673431732686 2.0956702896987958
-20.427047514061453 -9.64430475983448 2.141778239446613
-20.509088162469272 -9.587487232819733 2.1898039165076644
-20.58777951050393 -9.548440431583082 2.2471199686233274
-20.678708708890085 -9.519773952326739 2.3226357510973017
-20.72605379536985 -9.511088517262273 2.3657688358516253
-20.76253495780668 -9.511144918213454 2.4027049553427395
-20.799201752874335 -9.512234066848386 2.4403902033383265
-20.853872527711754 -9.512501852029025 2.495568751136605
-20.89300736311836 -9.52211693471222 2.5400486165550813
-20.935409946671566 -9.526416794554654 2.5846405828651773
-20.971208132950224 -9.526397627875607 2.6199340254746244
-21.010950539435097 -9.530757948170015 2.6613954065055
-21.0511883992837 -9.550427703112398 2.711851710690004
-21.100207447850867 -9.585645619157916 2.7790049907082515
-21.159217098919264 -9.596936642654097 2.840215088205271
-21.199657138294018 -9.56223596886843 2.860813735621279
-21.24168063043619 -9.54504458125263 2.890708358374642
-21.28020591540853 -9.510906489045256 2.9077325091858213
-21.335456122311125 -9.460443419132954 2.9350785276703784
-21.399107716707494 -9.38420489805905 2.9164939024661867
-21.46531770363413 -9.313870314138569 2.9181052432654706
-21.486910606413737 -9.279606274436837 2.978004232258139
