64
4.692324692598106 4.857128504235373 16.86565586167361
4.482614761405538 4.870568776789295 16.826741878478256
4.275955689668366 4.864392866387201 16.776761218350103
4.07366971983242 4.842628937858853 16.71344720485387
3.877126909070617 4.806405098610416 16.636303254321433
3.688004669466251 4.757998598502137 16.544438918311947
3.5079692776079594 4.697859902333603 16.437986512833078
3.338687381250271 4.6260758720179105 16.317473694487386
3.18214869393658 4.544158443253751 16.182982453448624
3.040726399832552 4.454869360402366 16.034363590719657
2.9159146848743127 4.358510767425592 15.873187061455685
2.808766648719422 4.25474456155575 15.701450479739805
2.720551449582395 4.1441799396057615 15.520740631191607
2.652516493087428 4.027338119142181 15.33280048510462
2.605403513860902 3.905333943507189 15.139419242810138
2.579762618274815 3.779579021784555 14.94233101631821
2.5756496031572356 3.6511636528829574 14.743358693937147
2.5910414570209386 3.5189885928547997 14.544451517600752
2.626808444885839 3.384434681621285 14.346845289930659
2.6849530372140276 3.2500709670499446 14.152234289092231
2.765689471157777 3.1171959694976947 13.962734002695939
2.8690939379332 2.9871782665934075 13.78070166321195
2.9941801326080295 2.861219863487061 13.608137790307325
3.13976485140697 2.740423919747139 13.446919729294741
3.3045238382480573 2.6258436723298106 13.298804909052041
3.4867930503395557 2.5183864577686648 13.165170479154767
3.68530865599381 2.4190262214536538 13.04800202463246
3.8984656315457342 2.3286944381133865 12.949236577921294
4.124123059359745 2.248105793163925 12.870170875643428
4.359961736642864 2.177785324087871 12.81165583388939
4.603801791716023 2.1185984320268374 12.775615795884338
4.852938064804085 2.0711351475848825 12.763230554400998
5.10428820434352 2.0361210186138465 12.776470073241835
5.354049393363999 2.0185835976738136 12.816264717008032
5.598795883364064 2.0137334890749394 12.880987494291702
5.83585862883283 2.0201850765876865 12.968632832300518
6.062815377945156 2.03748435802409 13.077689894245442
6.277503753757888 2.0653533503052244 13.206579438125228
6.47811639776398 2.103357805896635 13.353507342119439
6.662505277465865 2.1506439081763324 13.517437016410764
6.828759971523542 2.20662149361122 13.696807244720048
6.975459826604547 2.270052880065766 13.889776728079774
7.10159207963798 2.338799637298876 14.094623044712272
7.205856770420553 2.413296856521495 14.309160707395428
7.287008561420141 2.4945010836634 14.530920807686286
7.344050019948302 2.5822935912331126 14.757501740947717
7.376094790407716 2.675547904932763 14.986635574470185
7.3826755356221145 2.774166832494848 15.215564976916184
7.363935880905857 2.8793568959031215 15.441051305218537
7.320115150880599 2.9918784979532655 15.660022530717153
7.251191814324011 3.1177573765349407 15.867612144620583
7.155509517830108 3.2686306953283935 16.05614446931456
7.0372475289851195 3.429585129138198 16.227791978906282
6.898080618020657 3.594054859029439 16.381866407789914
6.7403607746295435 3.7561498377086333 16.5180407696942
6.5666079316049615 3.913709134804806 16.635275766315683
6.379507331629689 4.065505419450696 16.732750050099675
6.181572136159366 4.2088247997127155 16.81030227823873
5.975429538849337 4.341626118084786 16.868111927018834
5.7639708853060245 4.462500082382062 16.90745033852229
5.549425588186791 4.570530557788807 16.92933788805933
5.333598107295962 4.666392692055194 16.934088157851836
5.118098566391266 4.74781808606107 16.92367214182589
4.904098505594843 4.812687331496456 16.899915290211133
