269
-20.663183937177468 3.243601866979712 15.131731396098608
-20.671726022822277 3.1924458321309777 15.097182225119525
-20.6769661549529 3.1504256781158295 15.056719911751092
-20.683175352673 3.0933823194258627 15.039378168247971
-20.695858730988533 3.01049909997102 15.055996339216215
-20.703424533892704 2.9420946546861373 15.05353662106863
-20.719445441597202 2.8314731391876293 15.090145005095394
-20.728379193783905 2.762158198750429 15.107795137873701
-20.739857200645083 2.670758112252275 15.128988444447643
-20.750131395441418 2.57066437796749 15.141842333822328
-20.755904669226755 2.4686960367368878 15.143631761095282
-20.758496183257087 2.3953799350315608 15.141276952950182
-20.760642890426688 2.3195016474871872 15.138262913411342
-20.766023059735076 2.2391386759379044 15.150150534381112
-20.770158272132697 2.1780557964545606 15.159661073455329
-20.772292265448797 2.112506212969497 15.165274144299005
-20.77310778836787 2.0540181026353554 15.163993498721393
-20.770892351739366 1.9732959732326565 15.157302941679301
-20.764726020282595 1.8997301537869271 15.14037132485732
-20.76143867719094 1.8242358608594111 15.132876233282794
-20.756172883245316 1.765045476475068 15.122782554188305
-20.745136455420745 1.709205918548279 15.097631174450267
-20.717990505031217 1.5989708725533607 15.041875603105968
-20.703610419262255 1.507507253435775 15.023374773733167
-20.695969093368692 1.4020238151624147 15.023200517527172
-20.68590309346287 1.3328045601089054 15.014589097874456
-20.67917598650465 1.2082411795473194 15.025892701141576
-20.66205232595537 1.1130303594675572 15.013470940720975
-20.647014601935293 1.0510798933077483 14.999647671264952
-20.625849665487415 0.9650206681606148 14.982788390993878
-20.61550603660898 0.9107293753220462 14.979924039149875
-20.60087577923839 0.8465148320235114 14.977692295912963
-20.589044139146477 0.7916373682188036 14.974540732677031
-20.574311958717026 0.7340053937391113 14.972005321976042
-20.557244085112853 0.6747735269411397 14.970612762933381
-20.542385904066023 0.6256075392604208 14.969058344690012
-20.524271227783203 0.5727507659893742 14.967233526018308
-20.49306674136237 0.48904135550598493 14.964029367567534
-20.46280020991305 0.4172252930521294 14.960230951734328
-20.437809523218846 0.3429246704852691 14.96794206159716
-20.387732501139553 0.2690577126075251 14.946482141812982
-20.349091408367094 0.22978839603335288 14.920365010027272
-20.302122910442726 0.17732158545374688 14.895051978691225
-20.25538709872175 0.14104638998132035 14.862784273443012
-20.21268709778852 0.10385536925442196 14.83895606765152
-20.14312101699923 0.06154921845341832 14.789344693800519
-20.08481913622445 0.0260845705718733 14.75207486286375
-20.036538151905223 -0.002656396118700499 14.721961200142363
-19.97197331019243 -0.03919865542859924 14.683659430191344
-19.9184567360776 -0.0683518234885403 14.65291144126893
-19.85877596411966 -0.09832480582949721 14.618865518726793
-19.771126356822467 -0.14265696858659815 14.573590024007192
-19.710566913257182 -0.16601626427756422 14.541856401746774
-19.6503821097073 -0.16860752451975092 14.504417293292015
-19.573339629489716 -0.1844437605570306 14.466685217197696
-19.522763335466014 -0.2094638010131491 14.453343953983111
-19.455675131218964 -0.23981064301306487 14.440177793049024
-19.363957628274115 -0.2734935488374637 14.4234998587246
-19.316093330877624 -0.2886937743793383 14.41624986205612
-19.21703669578902 -0.32431096218460276 14.407389076781207
-19.126823421103232 -0.3596987950811972 14.404265963198835
-19.02983871460023 -0.38925020696715995 14.397393831062729
-18.952929100595266 -0.410811706631546 14.39257128946948
-18.87533393924291 -0.41913986624741506 14.381054649380623
-18.822039460938367 -0.4239282615835607 14.373894033871874
-18.75422748875362 -0.4308011971688863 14.368179485674716
-18.69103529230322 -0.42769789927473356 14.35558270463532
-18.633428255707514 -0.4257187489527885 14.346177829321753
-18.535678176898454 -0.42483750738003945 14.33237814429506
-18.41397821826864 -0.4322306875998789 14.323408179539527
-18.31879904727963 -0.4279640836559695 14.310306457369702
-18.266196469450264 -0.4158429162904187 14.298010970535927
-18.206737179306632 -0.4013834252987216 14.283113934902048
-18.14001960074651 -0.39916167084075616 14.276575731087707
-18.074982271967734 -0.3972397006094113 14.270454353783201
-18.015178620925052 -0.38960932354826827 14.260631667256373
-17.96059817085597 -0.3810543282469325 14.250951007352374
-17.88036661930929 -0.3695987715312121 14.238335999640647
-17.81607488660557 -0.35786297037856807 14.226577757669329
-17.74554842006398 -0.3457570787689148 14.21444091168749
-17.690480127871805 -0.33443852709510313 14.20357050225672
-17.616982129084093 -0.31947742962476067 14.188721699142373
-17.568677951074502 -0.30963046177267195 14.178978342806712
-17.5204399735874 -0.29965034747904973 14.168868641035434
-17.458042511526337 -0.28650777915580505 14.155349115055639
-17.37657490889128 -0.27162538602112685 14.139276463064789
-17.31950746753128 -0.26166338034867875 14.128768417566423
-17.236198928826333 -0.24285296470663864 14.110582249526153
-17.168623615743936 -0.2243308179607446 14.095252145063426
-17.096024687232234 -0.20551616970839826 14.081057895794395
-17.03734936795927 -0.18880741301228632 14.069538277657461
-16.95928840143789 -0.1641129304939204 14.055263356012997
-16.89354063897711 -0.13886368321573261 14.044590554518503
-16.828762889687113 -0.11002866289057867 14.034736047921491
-16.739766697932826 -0.07150601967790227 14.030655643488739
-16.63281087547387 -0.04097831375314165 14.051627773378705
-16.563581330815502 -0.013676625436047196 14.07459269075856
-16.493585134440632 0.021324937235353225 14.106673062780835
-16.446563091959703 0.044467478590121345 14.140905540956219
-16.40568905636063 0.06990829399166021 14.178322666564604
-16.368040238728582 0.09825219570699328 14.218755912670865
-16.327277695020555 0.13211399632744314 14.274032574424261
-16.30262618707099 0.1562037197133801 14.31052934860412
-16.264053939016563 0.2004712991560238 14.368721956794431
-16.226754975753938 0.24390646391289028 14.431312279892634
-16.188442457662415 0.26797644568248913 14.513105947674998
-16.164761058594706 0.27969544773858335 14.57403242784535
-16.148268392280634 0.28147817558236543 14.623496026741122
-16.129153800236242 0.29045489271433933 14.680512995122918
-16.11016711422166 0.2997737308445858 14.740582505511021
-16.085741619738826 0.31363058866079463 14.818095498876616
-16.068998329810405 0.32023679860411036 14.882145532376374
-16.053490254873775 0.3146511967167456 14.95433139512291
-16.03286030572104 0.3232437244794406 15.043880432961902
-16.018696461030917 0.3272547677023274 15.108855763876065
-16.004743129590498 0.3310743039297961 15.179697810609483
-15.99037385225107 0.334054351831627 15.266585834727039
-15.982666653157096 0.32546628092045005 15.332473855184755
-15.97531625351464 0.31431859119444905 15.407028812087901
-15.966865613207453 0.3240629500274723 15.46583013608782
-15.95774947282712 0.3337166355417933 15.53356918030368
-15.949611691882708 0.34285636205120085 15.59364480350295
-15.939307481319439 0.34965106482666997 15.69726929636952
-15.924776482185283 0.3695350758958522 15.79093710423091
-15.917647337008853 0.3795591992826717 15.842266565388545
-15.91132225166279 0.3921850559555091 15.905196782591332
-15.904436540866834 0.40629477771086275 15.968909942862208
-15.895876788267348 0.42503755793801457 16.03920961751465
-15.88890875141277 0.4434267689996263 16.096499746009403
-15.879925541398524 0.4723215927046427 16.159223653719103
-15.870868491658392 0.5026619124492608 16.222095404851874
-15.863194890645241 0.5318715828499183 16.284494133865614
-15.85666874262893 0.5655825636154495 16.357325070552324
-15.854587375358767 0.5883256134542272 16.446932791259094
-15.854988259421527 0.6018816483455485 16.507621421932846
-15.859151968097509 0.6126275221033737 16.589324329820304
-15.864776581966904 0.6183003136417504 16.656268389899196
-15.871270864196335 0.6336979255737258 16.73665726893699
-15.881611296268883 0.6423359906153747 16.81871503838472
-15.90269660049141 0.6411135845763143 16.938372347514672
-15.913079136408589 0.6378977254077114 16.992766651585143
-15.923061504097728 0.6348054402166134 17.045069013541536
-15.936714514319021 0.6297923737426219 17.11697649922672
-15.955965188696396 0.6290373377132683 17.22106787728082
-15.968688760533512 0.6523994454973012 17.31098803287519
-15.988267964883892 0.6504137853703851 17.40793087061205
-15.997171874127964 0.6571791553467294 17.45698298487527
-16.005805536073996 0.6663677150706668 17.505433443943602
-16.01599781652535 0.680595487888283 17.562993483849606
-16.027223729894327 0.6864022020461809 17.615178760854523
-16.05073888129901 0.6960571952114165 17.72326618904623
-16.068838410958584 0.7303401761584993 17.813829254038676
-16.084024925738206 0.760051577927066 17.884245987514124
-16.094096830860643 0.793320181811251 17.93209092929869
-16.105759197279166 0.8338084669097201 17.977556365257914
-16.11863810233563 0.9031221797759885 18.04103902005665
-16.143995034255973 0.961907098566841 18.1240064414929
-16.16337586684232 1.0257578544194335 18.177716374341884
-16.182519029520098 1.084810596697312 18.223444875736444
-16.206919769497812 1.17000473819329 18.267357189307194
-16.240916364771305 1.207961352832954 18.330577982236765
-16.26826497614091 1.2370611072736564 18.37037776869642
-16.30496976327603 1.2725211556505238 18.419808063596232
-16.340058492425523 1.3207638691229322 18.454208567434357
-16.378020687992855 1.3657394895791732 18.48928983120081
-16.424113441831103 1.4126408517202806 18.526923238499418
-16.46170648256145 1.4491674045439442 18.554917214674614
-16.503288746228783 1.4888740728224503 18.58211005940717
-16.546941718314667 1.5359304685083428 18.606634584689548
-16.60221577005437 1.5924992799949083 18.63423827213402
-16.661152676593424 1.6498145448275858 18.661562367443086
-16.7059772052861 1.6891868450450565 18.680292201789534
-16.757738149982874 1.732951413621528 18.70160646246015
-16.85760127491145 1.7975922615210242 18.74547596826641
-16.923945449470082 1.8527213045548665 18.766987224726666
-16.976831675569738 1.941449942469105 18.766340615602658
-17.02325032491092 2.0302822138226695 18.760622708656033
-17.058447808889724 2.119367803457557 18.747322905675954
-17.098404769814604 2.208850114774955 18.73698183330673
-17.13849192755953 2.305716715892271 18.723942422924562
-17.191031679818405 2.4118918289642686 18.71236566628579
-17.243072035097335 2.498509471563694 18.703927430687383
-17.273737798196734 2.549977864463865 18.697173320140656
-17.304732802350912 2.606809352946674 18.68694356933452
-17.33531665531663 2.6606372260722457 18.675543559807853
-17.366822792080708 2.7169575022683725 18.662931067230723
-17.395420057246607 2.7742063640550194 18.645740468965034
-17.41857611896123 2.836897458300127 18.624214900942317
-17.434062343598008 2.9058387880587544 18.59749138694767
-17.449238720317144 2.9744966444231844 18.569673600265293
-17.463997892199774 3.043037855380878 18.541249958555063
-17.477047572336563 3.1169783123562125 18.509360835408067
-17.484181326223272 3.217831525837421 18.464303640215114
-17.50229147829881 3.2897422144620263 18.431241163464875
-17.51846169722773 3.3633768461372258 18.39634709563278
-17.537075821013946 3.464648160274808 18.347594662636958
-17.559751330522854 3.5422802823997417 18.3077774887785
-17.57610165894174 3.5973649435796053 18.279087968235064
-17.593072616490293 3.648706181316152 18.251021450704783
-17.61698031560832 3.70672305138163 18.21779914815349
-17.64630617937795 3.758493207732209 18.184417379453496
-17.687629715872717 3.8047536650926057 18.147402184055807
-17.742940422382464 3.8629749209985684 18.094858384171296
-17.803212427462377 3.898704925629251 18.050781020690387
-17.847807162312364 3.941103023043353 18.002177709874587
-17.890652606264123 3.976093754949848 17.956703914911593
-17.930565159246324 4.005307181469489 17.916953503934888
-17.97011394247831 4.033035011368896 17.87233522561943
-18.009259737463314 4.060299808805769 17.828835577858772
-18.0432488433323 4.084377319443326 17.789417690720647
-18.08271798466977 4.117581361683452 17.73794514829419
-18.111259087732495 4.152827532236517 17.68931697506704
-18.1423312815842 4.1914043621971215 17.636075453961315
-18.18312431268549 4.228795095903517 17.57939630396953
-18.221735705554167 4.274620445847154 17.51817980642404
-18.255183706695746 4.305593656155209 17.47557339604424
-18.29561542119455 4.340636211438453 17.428725944013845
-18.33629098496865 4.393526053094667 17.36950503525129
-18.378562292824252 4.438650978759067 17.320318192725072
-18.41700652763695 4.473496090326482 17.278900199118524
-18.45671290028329 4.507243834278369 17.23954229478857
-18.500340215534937 4.5410956576582775 17.19912996790541
-18.547285337002126 4.580367027594771 17.151622362182547
-18.59445766717282 4.61515336131844 17.106169241901792
-18.673467153648545 4.6522817988762695 17.043351839328423
-18.721787090181046 4.665264212453871 17.010979939273625
-18.76711742175649 4.667661118648367 16.98666418932988
-18.822239259003354 4.684895349424017 16.941516417585895
-18.876677725836437 4.6849822935091145 16.907345259601996
-18.93244212123275 4.6854135216227535 16.86487049724872
-18.99187905251875 4.686904122533961 16.80878078103611
-19.024927014381742 4.687560318763903 16.769297527666982
-19.056809897004854 4.68783159164991 16.729153748902604
-19.089483912339336 4.6863778187408895 16.68664215801518
-19.12213386940982 4.682206193121405 16.643801136997297
-19.156085505818705 4.678454702176562 16.596296269436966
-19.200186244156097 4.667160264455659 16.541404055238765
-19.243406413105475 4.6562592546021895 16.48499201722476
-19.276080050448307 4.653625963139162 16.419981889406873
-19.30500394985588 4.651837771350597 16.35599117830773
-19.33858726517873 4.648366454100217 16.282553548673743
-19.366960978892294 4.651984152092921 16.18951423323397
-19.42829689442794 4.629316224653805 16.096279186484335
-19.469498172541634 4.609817594744082 16.040914034722228
-19.541759513391444 4.5959265120379085 16.027087234253937
-19.602319771745858 4.542949819145426 15.992469311164108
-19.66448263769902 4.465118926727487 15.904399174872559
-19.726560190866497 4.425572061253301 15.832076980137941
-19.779084103897343 4.383939603683543 15.78716522565665
-19.82347926071292 4.347498641776915 15.751091282382369
-19.898385420916714 4.282357535637767 15.690165394276054
-19.945640878534878 4.238483635292387 15.654625401048584
-20.008656420606545 4.176690662432995 15.623054448642936
-20.046235437491408 4.139111554527097 15.606343620513773
-20.112650003991064 4.083723048639963 15.547513947374835
-20.162952868919827 4.044321736855497 15.501927042339517
-20.208082843327272 4.005336669509487 15.457248105254678
-20.24747656050656 3.971286074543264 15.416009308580957
-20.28899963353574 3.9317360920104525 15.389270191029212
-20.330561269769536 3.8874533906660593 15.365046615000775
-20.363706911985574 3.8498373911768367 15.346020313474458
-20.410840078586794 3.789088674818455 15.330985783518006
-20.450533025470616 3.7351099893067436 15.310136053907346
-20.48766137443902 3.6769293033040915 15.29719395552278
-20.524338998108142 3.612103071200006 15.290662856278054
-20.563144538076823 3.5340073053787124 15.28792913033777
-20.598231754659984 3.4557451685088987 15.256419559555109
-20.6216444250515 3.396708865010072 15.218626161381156
-20.64467008299023 3.3213633926623602 15.17810951426923
