317
13.877427415939794 1.004835891784749 14.592320037899972
13.796579414231438 0.9866626338181623 14.53162834338184
13.752083087592425 0.9752586858232188 14.495898209329624
13.701741044936938 0.972101981589887 14.455377735411997
13.643981081295587 0.954851365142086 14.404532272128746
13.582945903980857 0.9435432086703228 14.349325220371025
13.542560388618744 0.9323648450868554 14.311669916057765
13.485824455433043 0.9000566572810014 14.254608915751458
13.435869896021375 0.8671299949882663 14.202430256211803
13.40448876507149 0.8461752254650925 14.169350115049836
13.373245702446813 0.8240432263673938 14.133961943908739
13.313880006607064 0.785728401187141 14.066406714267293
13.25628311822524 0.7661296645530697 13.999656567513048
13.213781092798698 0.7574816749905731 13.946575191917635
13.149127458137283 0.7260287159266383 13.867516933112501
13.109201979500215 0.6969023993030046 13.814513018000518
13.073288121958234 0.6773721423198324 13.766123919503281
13.03976482108044 0.6584545586953832 13.717985537540347
13.003383690988368 0.6522443028189695 13.668749430801878
12.963448435716415 0.6315142643608374 13.608851721459438
12.939907476656412 0.6192937922998727 13.573543399001199
12.907775221096731 0.6123060995755294 13.523889342549698
12.87168795878596 0.6047988990537014 13.467049507081182
12.817442734671822 0.5833791553397099 13.375937221030936
12.786593462060655 0.5760758185814572 13.321319634347997
12.756871927152144 0.5663790921712435 13.267123953355307
12.725209376690968 0.5562077491542574 13.205653521065226
12.703069701026614 0.552089737697651 13.160315810679213
12.676630351293491 0.5447174695506201 13.10354540652692
12.646693828799043 0.5343254268389677 13.034014328720959
12.618073837177084 0.5225115807084588 12.96110260679728
12.586478319468489 0.516197448376988 12.872580268683112
12.56475723274315 0.5107262908455894 12.803489690055347
12.543645367302243 0.5069051531727986 12.729987863773326
12.522639250132356 0.5235386254191754 12.64164751360913
12.510875501121726 0.5301721757616491 12.572168943800119
12.498602492801885 0.5333149977899234 12.508002632335693
12.490554237927922 0.5327693679297454 12.441749430321968
12.485358539070736 0.5332595716433799 12.375720898468867
12.482492216204763 0.5343388881989446 12.310942159464181
12.484315108087706 0.5499842042711389 12.237683864518155
12.492001696186495 0.5590218137955638 12.139180536349372
12.505618061639622 0.5791129356998743 12.05166860212067
12.519129498552205 0.589182400568256 11.98793936996599
12.535876115180981 0.6028851224592788 11.924345901484024
12.560961680882874 0.623228606964358 11.846651462057563
12.580105329632948 0.6285648363860501 11.794709728383385
12.606973214692653 0.630187912879407 11.727361401284913
12.636797121684424 0.631680409785905 11.65901432642723
12.658629751057084 0.6324303014086148 11.613324148877252
12.682159630234525 0.6325226042646239 11.567274073742443
12.707651397370512 0.6339736596700201 11.520865689198253
12.735041745403203 0.6359383344932317 11.474470907996887
12.763698931832334 0.6377255776879815 11.427590134048074
12.799212311680018 0.6403687365227624 11.37271932924545
12.82929859919864 0.6443521463593811 11.331143873164798
12.898364026782161 0.6587639018192135 11.242295987064587
12.97362212455622 0.6611558873677863 11.14832960700577
13.007226962342088 0.6639039641018307 11.109006081687003
13.07500695866428 0.6754160712700008 11.034284043645116
13.150171334518523 0.6898025706085731 10.954891581199853
13.198393151211345 0.694519218948197 10.904761868157784
13.24770816606454 0.699827068965373 10.854233301884936
13.298758274462319 0.7093067900014747 10.804652644227142
13.350766827438216 0.7215712584191305 10.755542522208952
13.405679046061456 0.7337370024760279 10.704470576587365
13.458248894920043 0.7367771112057842 10.654967208151653
13.495503542601824 0.7373529163545491 10.621132869039577
13.532243356513664 0.7399093806004018 10.586183830914287
13.582689983676577 0.7439024737994746 10.540829504955582
13.646600260322494 0.736346723582348 10.48143262714067
13.685454988713573 0.7330589354974455 10.446209289814991
13.724492702855988 0.7364738003410913 10.413083788378309
13.763480511128947 0.742898376313283 10.381067454262947
13.80283600117311 0.7470077157418897 10.348681074600329
13.86850006088494 0.7527333615970315 10.29534348419553
13.92131103257281 0.7660566185432316 10.255373228915694
13.964789627223283 0.782444672587916 10.224353442426011
14.038683268913186 0.8030241167134342 10.171113564415318
14.110093743827925 0.8229837170143259 10.121265341697825
14.164019882794268 0.8367944016781195 10.08455885983971
14.236346514999717 0.8457161137750031 10.034262502753553
14.287118393457918 0.8550991702742436 10.000873102999943
14.34674499222374 0.8600083743470499 9.961237319945623
14.423235329245518 0.8697134590765989 9.9132918129684
14.498696657399421 0.8977221505488826 9.87193837064575
14.566003833307404 0.9144988019649487 9.835869074454216
14.620606144543888 0.9259664856817915 9.80777774166646
14.684008673036498 0.9617174623106433 9.781714898975375
14.733122097734928 0.9911959093416405 9.764126617668536
14.781932686255445 1.0170407370079557 9.747228536556115
14.836321715957213 1.0530794990034016 9.732440399710448
14.891094685053712 1.0937962702600172 9.720413932201055
14.940429412892593 1.1294317346699954 9.710970778668383
14.992454799174054 1.1682651899382464 9.702472216111538
15.052550425490104 1.2280530057890493 9.699329222888206
15.102850319567654 1.2694736679910035 9.695670494743629
15.155898347184277 1.3085388951541495 9.692661724684442
15.209248448742779 1.342980792166883 9.689275723414903
15.263053384128893 1.3737652028720415 9.685721485754524
15.35223557765706 1.419255519516848 9.682693202687357
15.42216435641672 1.448800130978685 9.680732403891191
15.486099659212856 1.4825477996330632 9.683724020746542
15.537281448939682 1.5081420911946744 9.686723999678076
15.595407887336714 1.5381243291523425 9.693482637531254
15.664928868680713 1.590221146768549 9.708101880974578
15.735203587276471 1.631289234445223 9.72143046281646
15.779099066462047 1.655874455680471 9.731288809907436
15.873789430965031 1.7188371209224078 9.756425249314077
15.94160388081763 1.7672625088589484 9.778358107260445
16.007958422029272 1.817751144790595 9.80258903831729
16.072328642616018 1.8630328025385587 9.826174866372625
16.12193159862616 1.9005927522558812 9.846026087239231
16.16050338596187 1.9294629762755822 9.861834848741797
16.209259203777528 1.9648777978381258 9.881227408913478
16.261137777938604 1.9973143472736048 9.901980335127226
16.339688934271564 2.03700265285437 9.929816529966633
16.411017307978756 2.0569919992116343 9.949592790195986
16.476540557232923 2.073841571511185 9.968080752040521
16.546698540768872 2.096853389355581 9.990071011404687
16.594215451945814 2.110309026263984 10.004142898125945
16.65813357642154 2.1276406494419877 10.023773735423777
16.710803292734205 2.141596635720906 10.040319010855864
16.77209986093901 2.158654637511469 10.060543677536057
16.820279541667237 2.170662042168069 10.076412793298338
16.87318106660322 2.184608003166125 10.094652713048884
16.934598444450483 2.2021750701164367 10.116800509439841
17.00594704372085 2.219186978933556 10.141978626584624
17.073987958558885 2.2356137089022416 10.167745466606666
17.180480585735687 2.2435956837662596 10.200319658528915
17.240097141467448 2.25016558746612 10.22069435000411
17.309299393521673 2.2619426737557866 10.245870738206586
17.36118449442068 2.272871875946673 10.265929997257007
17.43784599372686 2.2994829235927954 10.299404909812363
17.493221177927406 2.309261909040095 10.320770445546085
17.57673743663717 2.3246826264628586 10.353682283837534
17.653178064290415 2.3216731313591454 10.378721449398798
17.708356479550154 2.323701985449942 10.3990199425296
17.769931035017926 2.3350428388918676 10.42407183564978
17.859847390309067 2.338020731407637 10.45721607629043
17.949885636869595 2.344074133689249 10.492185030643325
18.006663173581202 2.345509166136309 10.51393657599928
18.089278263217025 2.345018016693242 10.54544071095503
18.147250318278424 2.334715949585168 10.564726676696472
18.224785100515803 2.3230595209271128 10.592075305947493
18.293509179880232 2.3193022734740083 10.618666180822462
18.35716833607472 2.3164226331590347 10.644634352354245
18.431884523232704 2.3153167958518717 10.675310977530671
18.49520027840329 2.3201763645759286 10.703368775874395
18.562499928285884 2.328457574152562 10.73398482642612
18.631135234513764 2.3501970711267246 10.771426561082784
18.685312194935072 2.362121379631416 10.799149195224466
18.738946332725565 2.371870182018707 10.826374159671087
18.80891179906118 2.3797495928742407 10.860991088668236
18.869645312911715 2.3845906926505185 10.891225898420604
18.92697707440313 2.385387127774596 10.918954674936803
18.980500633641864 2.384544968534991 10.945746854237143
19.046450955500706 2.3869142441306854 10.97977338706621
19.103967654449352 2.384022970933656 11.009486669825861
19.14897906067982 2.3828947966764193 11.033309010360625
19.210956379900512 2.396019726199561 11.07083621859922
19.266981718509104 2.400493054054774 11.10461055186526
19.32921012781182 2.3970934653541836 11.140136280508942
19.374738977434095 2.4061299478670106 11.170398728459753
19.421934069406717 2.411211099397187 11.202036155561194
19.50003489393121 2.4218534499900715 11.25786114074592
19.581517414486452 2.437468987764716 11.322085761531884
19.641750550398132 2.4491665532800706 11.372995918360946
19.68129099001682 2.460593832495399 11.408987109816763
19.71948630140375 2.474361174855347 11.44580242440696
19.75646642804158 2.484704555500284 11.482340555440105
19.791724810937378 2.4914543240864946 11.517859951348179
19.831616828201973 2.5022987801688714 11.560192977688796
19.87956134315067 2.5069546088576393 11.611940241625991
19.938780847768285 2.5156240312986595 11.680204145550032
19.98017658765817 2.515391609708141 11.72893457875227
20.025050219648694 2.515202967175104 11.784936435576565
20.07811954962518 2.5124973470309335 11.853928037463874
20.128643529698067 2.5177030184851388 11.926126328208221
20.17394318612614 2.513298523414467 11.991751254685791
20.220662221587258 2.5196757077318033 12.067269127377708
20.250670034800713 2.5213410314902305 12.117165652511446
20.282580658667392 2.5249044055958505 12.173000146352628
20.321948948868982 2.5311616854358077 12.245966509221866
20.351633882059318 2.5402712182641247 12.30430032062818
20.39171398305849 2.546273097063862 12.384312889719387
20.418516114450483 2.5476512893991154 12.43895262935818
20.45236497089299 2.548730572515753 12.509084087929208
20.48793893337375 2.541941856865207 12.580957863157876
20.527290333424762 2.5370198667355206 12.662777007848044
20.549267678776367 2.534908216196981 12.711143574843009
20.569678420786357 2.536746131141781 12.762003566762209
20.58721107821845 2.53873314848129 12.810915629951577
20.61124243414299 2.539395826943746 12.893868833377976
20.624720765500214 2.5296211973211653 12.945642088220218
20.640511490236896 2.5073414854367684 13.03235082874782
20.647156371829848 2.4809191874404473 13.130212619512145
20.644232404688278 2.4740539569181594 13.182868618533572
20.638980789990963 2.4626665869313067 13.237710168246172
20.632207183116762 2.4397813141101725 13.297413728665168
20.623475525001723 2.4159444233595435 13.356899178054444
20.612349740973205 2.391697927026992 13.421569332159363
20.597488011841335 2.349880058253367 13.51357747503635
20.583070250434336 2.3218955079292716 13.594971581254862
20.57082847756641 2.3096413938489437 13.659322256833768
20.556900339252035 2.2943502681890875 13.74070337196562
20.547285677767366 2.280221161158696 13.807025715792994
20.5367346263892 2.2720718901015733 13.872745068035014
20.52585721868086 2.2665176110999976 13.93656086519652
20.510398411257388 2.2585902219895724 14.026031953334723
20.501776920488634 2.2534146658286174 14.075078209836104
20.488992505886067 2.24551075152383 14.142235753383131
20.474959210864142 2.2377846642823087 14.209130123567496
20.458273509252848 2.224453626900826 14.283145852294183
20.44250244364801 2.216459046587657 14.34281474441426
20.41928096522369 2.2149633422010497 14.420448353346787
20.399593145517514 2.2117667023444865 14.47878859806145
20.37866945822673 2.204897150551381 14.535777178196343
20.347306390393847 2.193824677516698 14.611976097151775
20.322643559816026 2.177123158645861 14.663975187331468
20.28689591478985 2.1635016583259725 14.730391519243621
20.2509128569401 2.149350591274466 14.787368013931742
20.210547749023554 2.1335967264124758 14.844032511272957
20.17181500696148 2.114165111523312 14.890656732677165
20.116379287795223 2.080462327694165 14.94559761138176
20.066114810685065 2.056636664954773 14.989846535824887
20.009091854277287 2.0345478938400996 15.036526449110518
19.966654334149233 2.016204600651541 15.0686390259057
19.92479849519927 1.9899243174609076 15.097500771009589
19.87763202793725 1.9611104529604475 15.129113182872421
19.82636634014579 1.9455867445399653 15.162723138534556
19.757526161983304 1.9291457379839754 15.205720871120745
19.6588773393842 1.9219574805409625 15.264071001983565
19.602308632307608 1.9226007101155025 15.295942735346603
19.553182881376244 1.935416830929948 15.322658212396448
19.483562507585674 1.9309212382042311 15.357191082591685
19.410260307463 1.9069973942967327 15.390549371321951
19.34992479943704 1.8956733908087573 15.416723658187156
19.27638241481993 1.8739271509353692 15.446990090284261
19.201403485426887 1.8599516849848206 15.476382580119916
19.131395418999237 1.8473128759470798 15.502159953751377
19.058447082778578 1.8292399773023655 15.527184308244237
19.000402447127573 1.8141855119936103 15.545828097924698
18.923540829046257 1.7996127060361804 15.569474490765874
18.841482016401486 1.7743715664236994 15.592458517571346
18.758257495874304 1.7638924621099106 15.613893709549965
18.676451524455896 1.7527183113683407 15.632889846240166
18.603802307483527 1.7283640944423233 15.648048053256382
18.545545246812257 1.7126731398010255 15.659344007846318
18.465875391922403 1.693026180760742 15.672670741907124
18.40340195742279 1.678914834425095 15.681766559663343
18.353794987035357 1.661846266928257 15.688143773490605
18.26322348825303 1.6373796708738997 15.697533770347443
18.165507484044678 1.6233879209335873 15.701867307889406
18.102698041388752 1.6178272740592412 15.70507415782852
18.03129710915747 1.6115218122732022 15.706082198992956
17.969537684393735 1.6046333226156655 15.70490245969116
17.895098478212333 1.5965216199468264 15.703082466486462
17.815072741771182 1.5865421644180833 15.699370502589924
17.751694181520175 1.5746520330457203 15.69545373177111
17.694468369270908 1.5624993336494146 15.69089858518826
17.62387757867469 1.5523037793486187 15.684992907627857
17.552322052216628 1.5387008067614198 15.676163226253076
17.473526194571164 1.5196488447573522 15.667532630264997
17.41180935096492 1.5040524556729835 15.659649852102433
17.340350333452143 1.4779272135241293 15.6498447613035
17.28040520526434 1.4546261510446303 15.640975319338425
17.2097825535631 1.4298516944657296 15.629966358966321
17.154461178932554 1.4209797683551901 15.620528174671174
17.059350428881032 1.4231628488729253 15.60387264578184
16.97700185806644 1.4391826247624149 15.588274906992131
16.929442378807476 1.4534615720301813 15.578661134831167
16.881946673313948 1.4676544020658442 15.568564850105851
16.816443417937474 1.4938496012303268 15.555552056866809
16.736977401854446 1.5227390135688497 15.537532985833634
16.68888729927735 1.540756683758425 15.526687483837856
16.64065574098896 1.5587500494189372 15.51579955845234
16.569802047375273 1.577135234737777 15.499137646151484
16.499197435475256 1.5907239912700657 15.482565004458051
16.434206160616096 1.5968174653954064 15.467247831836543
16.357304714787322 1.5992559612896926 15.449009349527678
16.28858999013395 1.596324947456364 15.43266634351723
16.196201511775442 1.5990773247241235 15.410053118769321
16.104781651284032 1.5907898869323942 15.388263207174532
16.011764479068542 1.5767503895089385 15.366359614418927
15.929887065266138 1.5659996980687998 15.347067672751363
15.861324833784424 1.5619736283960366 15.330451094109884
15.79651058338109 1.555947495899292 15.314791984721133
15.737545274833822 1.5462998390895262 15.300590305819691
15.666892117658533 1.5238242019528458 15.284254622930693
15.60163046373689 1.5063849693463922 15.268672841411162
15.538507459068589 1.4899228245075316 15.253391067367389
15.449073169264151 1.4560209913476152 15.231498206674319
15.362236909026203 1.4181097524243746 15.209908648476375
15.288503565166183 1.3901043212903934 15.190194984032802
15.23682474788979 1.3764519741219035 15.176712937884316
15.152867740195617 1.3443447609670365 15.15365663945631
15.067200616541838 1.3197571616380657 15.128860875479722
14.974933758000411 1.273594383496273 15.101709949816744
14.921483427573138 1.249687068250931 15.08511508948227
14.852739251928602 1.208426863032753 15.063285303969359
14.811542547833994 1.1822739487995833 15.049766693146994
14.771059863401414 1.1514326358433147 15.03626997228027
14.731898437372568 1.122754596623592 15.022642130583035
14.66363831865601 1.0863286458374626 14.998285402488303
14.607212764039586 1.066506744585439 14.976612666434688
14.546135263012742 1.059004579596012 14.951755495684461
14.497542978515733 1.05486442085257 14.931783650106956
14.418944078940427 1.0411902593634128 14.897424999150797
14.363650064204238 1.0410286516866512 14.872343921701093
14.303713520190522 1.0439673366482172 14.843832795074235
14.244369240151588 1.049639563909671 14.814475792838405
14.19855507322228 1.0547026990251718 14.79105088465462
14.130814377937517 1.0456249238967352 14.754722127081036
14.07686649526038 1.0359130616327024 14.723333330928668
14.024244263833065 1.025896013348011 14.69129582800184
13.956579697368857 1.0118913105383367 14.647488791639566
