398
-27.190419470605335 -6.1152552607466175 -5.0164132773867705
-27.275608572947455 -6.120222043635408 -4.997595647588904
-27.33047144765201 -6.123542727261797 -4.985386952160018
-27.41012976172023 -6.126396076914935 -4.967333049301243
-27.508497300060938 -6.1256625294772995 -4.945029234614675
-27.618550166644926 -6.128830869827058 -4.920066370978571
-27.705533769237388 -6.127857724234447 -4.900932859869468
-27.76459097240734 -6.125206917531027 -4.887608351831631
-27.83795305258061 -6.108941794515161 -4.872530885136396
-27.930610555593642 -6.08659724830227 -4.852421232325633
-27.992296354439635 -6.077888876271317 -4.841215916692637
-28.060149245100618 -6.065746137253879 -4.8291458715235445
-28.131849427505063 -6.05205063880826 -4.81750165987891
-28.240478878224057 -6.040028275529209 -4.805472150284913
-28.349888983010253 -6.028032874480415 -4.798622777962223
-28.424720759079587 -6.001973120144666 -4.796004263406485
-28.50647626321444 -6.005899353052974 -4.802209021317221
-28.60010282045325 -6.003426459299635 -4.814745853336093
-28.6514773945841 -6.0036626254088254 -4.826095147857024
-28.72445293502967 -6.0128156128449755 -4.852391798562121
-28.800434164301603 -5.973367969198898 -4.867221037347691
-28.860098471058855 -5.9658927082591235 -4.894125327107344
-28.930173005361688 -5.995067708030189 -4.937645464658372
-29.027149217552076 -6.015329863796279 -5.0045027579947154
-29.101478763387174 -6.0257688915832945 -5.062172352977882
-29.175502967483766 -6.043444504212796 -5.129605004573555
-29.243644765709835 -6.057950313395806 -5.1974231155378385
-29.283391431848337 -6.063735557778498 -5.242514040405404
-29.33196713005046 -6.057404164338523 -5.293600423451841
-29.388862110167413 -6.050255440343652 -5.361829629297325
-29.44252168827745 -6.035373553403186 -5.429514459231313
-29.480357931713904 -6.024434729679855 -5.4811522687207885
-29.529221832750558 -6.021219757124811 -5.551244447482904
-29.572632889022607 -6.018625853663532 -5.618839263925612
-29.615989177904645 -6.020633013896881 -5.692515887444937
-29.659158206408797 -6.020203596120135 -5.773523615086934
-29.695147581543246 -6.024328683341459 -5.847312939239722
-29.722147875122346 -6.030417668433193 -5.908038499339168
-29.744915878878246 -6.025649454579301 -5.960659028787677
-29.77209372444726 -6.021603393596035 -6.025981037795149
-29.79470580230847 -6.023242797996619 -6.08611319753916
-29.8154906524992 -6.041980735627913 -6.151471233548152
-29.835862410921827 -6.079223027207393 -6.232270538221988
-29.85906905890328 -6.105689457745877 -6.327601258703969
-29.872460140568855 -6.108875646167604 -6.377506266275339
-29.886950051381838 -6.115621335135275 -6.450055794230498
-29.897817199457172 -6.1386391392391415 -6.531192287124303
-29.90319081160584 -6.154058901069946 -6.583878022787446
-29.91345565954257 -6.154639609790093 -6.662149728646017
-29.920459456562043 -6.152592820293062 -6.726814134933638
-29.921799436449355 -6.14903013305207 -6.8118633248352385
-29.914510591126067 -6.155968967082505 -6.893797568081916
-29.900327225280897 -6.163568601608984 -6.984830976879798
-29.878902678040454 -6.151422157101066 -7.109514087165709
-29.85836901978459 -6.156078083129525 -7.1950476022185805
-29.840901763952395 -6.140617913728055 -7.278581023569887
-29.82723638042072 -6.13228300047444 -7.334408322437132
-29.803569565751715 -6.141937949156937 -7.422835650822109
-29.79507158294497 -6.132255013619831 -7.464664526730683
-29.786979839028767 -6.1230356928899505 -7.504491968549018
-29.77463388465867 -6.108688903815544 -7.568441388949007
-29.763709975793162 -6.094061408005563 -7.634451268653046
-29.752068069970996 -6.075060948161497 -7.714695349803516
-29.748961059207822 -6.058354342989958 -7.787487311610273
-29.74764377652111 -6.041238968184232 -7.863168626940013
-29.762457610855385 -6.022670359324399 -7.950853872524433
-29.791276906455508 -6.009260870879458 -8.032633108845658
-29.818216916570954 -6.008433500089933 -8.08942574075155
-29.863320415833584 -6.015085835701349 -8.162828079173321
-29.888794989166065 -6.039614525991446 -8.202794159853134
-29.93177823705625 -6.079358110918518 -8.261369165782025
-29.962103837382713 -6.123952970974746 -8.30111008625651
-29.98265283149658 -6.169191691392286 -8.327758527706926
-30.0235994568405 -6.229523692547969 -8.378237790752081
-30.045565118583042 -6.2738179016449385 -8.407288425385468
-30.067620015830563 -6.313485057201847 -8.44062231646794
-30.084804627725767 -6.344707503928087 -8.470200202805618
-30.117663919216724 -6.399398850700751 -8.548743286460612
-30.134794582135967 -6.427158941923304 -8.594854672180817
-30.15369171438776 -6.454706879349388 -8.643338790535866
-30.16870014244273 -6.47876679764135 -8.69133650202812
-30.186666672708448 -6.503655057344863 -8.758184900970555
-30.199272952758974 -6.52710680521133 -8.841114813382474
-30.20067473158079 -6.552898487336839 -8.941530517214234
-30.187316896444024 -6.595719106220347 -9.032493953011114
-30.172150012931255 -6.618050445035988 -9.108101068476808
-30.15928602935928 -6.632291570057843 -9.158532357946429
-30.131629074087215 -6.665202600994897 -9.245587505707253
-30.098273798029588 -6.684172928405759 -9.357563099651747
-30.074000512561348 -6.679804474298646 -9.44914712128145
-30.053314502408675 -6.669733895114133 -9.529588357852681
-30.033046106237883 -6.658513820085437 -9.610647364986283
-30.013895201986465 -6.654567806715301 -9.681798010933704
-29.99756426554586 -6.647480524464858 -9.748522135940437
-29.97647102813381 -6.663324215478315 -9.818706275604125
-29.95575666268838 -6.690146582033013 -9.889394853616825
-29.937031327956007 -6.723647463239943 -9.955773963028804
-29.918795964209245 -6.7587930172381006 -10.030079733306248
-29.904540437795504 -6.788360425500169 -10.090893250222413
-29.89135492003797 -6.8200494517026 -10.146506535162017
-29.872085033718783 -6.86642404591893 -10.219721288207221
-29.857128274508774 -6.869299405260737 -10.306755194269208
-29.83800821413039 -6.876855051036755 -10.39552149102577
-29.82119431992927 -6.883054084851567 -10.459977061092061
-29.800461336735985 -6.890933442813848 -10.533314200305277
-29.785303438904663 -6.89293415700187 -10.584607657504625
-29.766357039392425 -6.895676152503437 -10.633925502322343
-29.75054075453599 -6.898832676088662 -10.67343931501473
-29.722986350438163 -6.904168042570104 -10.73377011668959
-29.67949653258215 -6.90789595188402 -10.809818450079941
-29.644451475787946 -6.910398953160008 -10.863871414243143
-29.602493405010314 -6.915352550058643 -10.920769579495772
-29.54551209019248 -6.92101779246625 -10.990566516202815
-29.48263430783387 -6.904241543183943 -11.060282342513498
-29.444124468537872 -6.897664440701354 -11.09998812414336
-29.384443045660127 -6.894718181098836 -11.157899428069562
-29.334359629494138 -6.891821443524471 -11.202817533008426
-29.280750332608918 -6.8888273069734565 -11.248855396869596
-29.23205860618188 -6.883465009934602 -11.28974808866613
-29.156214655133176 -6.86190056927309 -11.353163431770108
-29.094981646008463 -6.867055917426421 -11.399501797327908
-29.011307129695478 -6.886153665973686 -11.458950076597317
-28.920249032370936 -6.885807573088261 -11.520309776190375
-28.866456806510524 -6.8849310602680225 -11.552956792689649
-28.79471203945826 -6.88557520559781 -11.593959197761333
-28.748483306022976 -6.8954926933065135 -11.61748097639878
-28.688946757776367 -6.9092115605957956 -11.646870004663768
-28.6288400629967 -6.915524469730596 -11.675190515111717
-28.547114899076547 -6.921064949932681 -11.71142714199277
-28.48114916564445 -6.941468291371965 -11.738594426151527
-28.420250984513515 -6.961224293662445 -11.764122003942662
-28.362066478090718 -6.976068787539183 -11.788292890437392
-28.290862492959896 -6.992450912210035 -11.817722210713237
-28.214408636935353 -6.997864370170713 -11.847584864254653
-28.134168283182188 -7.001808996926777 -11.873379695397267
-28.06653204940102 -7.005136082258348 -11.896984906408127
-27.989853201449346 -7.01993799768503 -11.921946503588499
-27.921758406268157 -7.022863446514963 -11.940334981473763
-27.826838323141317 -7.0371580159492995 -11.966056784204934
-27.770252772951995 -7.053985294629016 -11.982872567318504
-27.695064281951055 -7.074614176114858 -12.004423370512583
-27.62116335644541 -7.08873166100946 -12.022351203730777
-27.554813135406796 -7.105483028038565 -12.040518191645054
-27.504699987361104 -7.111067339658516 -12.050725275704993
-27.452979481213124 -7.124679197927086 -12.062561177890204
-27.402333474199274 -7.13367552614381 -12.072278486400416
-27.34712743291361 -7.147327826450316 -12.083178409748092
-27.283930138690938 -7.158819885010297 -12.094215775143967
-27.20228719195132 -7.168599290825024 -12.106744468080992
-27.11680132252209 -7.18082390119249 -12.12035009546882
-27.042041770988693 -7.194499116106701 -12.132303596956605
-26.945381615508353 -7.237333491626355 -12.153195797033009
-26.89233869334953 -7.25332826083812 -12.163118537588797
-26.86390331355452 -7.2613638210115745 -12.168652080290473
-26.775208608755815 -7.294304265532006 -12.18653747550911
-26.652967670986712 -7.323923652371334 -12.212076932065209
-26.58226021740299 -7.338271294494728 -12.228253321532288
-26.494875657644304 -7.3354507210222994 -12.249061718044405
-26.370772726224345 -7.367105208910386 -12.284021949724659
-26.319217602388182 -7.380259664675974 -12.299588102440746
-26.249700474966435 -7.402553950097292 -12.321356638775057
-26.182998720526783 -7.420434450483406 -12.343755207123362
-26.116334824914933 -7.44401062796318 -12.367721226517046
-26.05955662766009 -7.4564584180487286 -12.389976530385663
-26.01178248195903 -7.4667702237221 -12.409444835031945
-25.95830936141649 -7.479757937050343 -12.4318250120487
-25.896785409377475 -7.508093138094306 -12.457329952325107
-25.836426771602856 -7.536201317351112 -12.483375237062857
-25.779082199096198 -7.592683653657393 -12.5049898904967
-25.71029076681884 -7.639944280624045 -12.532348650070626
-25.65698139632845 -7.661156944580782 -12.555932194703226
-25.600441935178605 -7.682796931657323 -12.580951810122489
-25.53191291409652 -7.721238831848251 -12.610417615402433
-25.489458673755355 -7.7508480949399825 -12.627549225880381
-25.414029932958698 -7.805662475014621 -12.657033700822604
-25.36019403034677 -7.829783817371146 -12.680054961225942
-25.293654827501747 -7.878598479725432 -12.703545837595774
-25.205330654757958 -7.918979704860971 -12.739744653443456
-25.1576743526957 -7.926608897068884 -12.763933731710747
-25.094313816221398 -7.922024249547491 -12.795525995554481
-25.03207932153968 -7.914064939458141 -12.826541319011474
-24.955651407602563 -7.908296601684788 -12.863703966223762
-24.907760449971505 -7.909228470684733 -12.885469374675186
-24.83564933025447 -7.91618602518901 -12.916219096562944
-24.78301100232579 -7.915912524038317 -12.939006069786037
-24.723799717769705 -7.914344628019479 -12.964053677671359
-24.664373695435586 -7.9116661970067 -12.988516504698843
-24.585141930856057 -7.898765498222514 -13.020747588674427
-24.492135713034322 -7.885075185782484 -13.054981180494211
-24.424763604356386 -7.873521717191271 -13.07727650006635
-24.366496351785408 -7.8702797288356034 -13.093119924371152
-24.316668325230857 -7.865802070129915 -13.106178010603617
-24.231851510825784 -7.84592775033408 -13.129691496297934
-24.165554706437888 -7.8260841685413185 -13.14774833646485
-24.09889828776164 -7.806705409560279 -13.165001511503037
-24.022225811295442 -7.78483813548819 -13.182736279491076
-23.96465678776931 -7.770713572924312 -13.194876824328913
-23.89659986143452 -7.759006047465049 -13.20720032640471
-23.828666585526594 -7.744221071668346 -13.218979483464478
-23.77577039893428 -7.733520633119391 -13.227384517445785
-23.693295071494195 -7.723639076038571 -13.236728106344824
-23.619200621275358 -7.715586078734912 -13.243999981885535
-23.5191002475435 -7.696452779665193 -13.252465249107713
-23.423282813178243 -7.692967752711159 -13.254713791577272
-23.356656437560737 -7.687680176235942 -13.25510516463052
-23.291087839303728 -7.679002798805508 -13.254713823385247
-23.237927445043134 -7.6730644280543086 -13.253024476671074
-23.159348465340308 -7.669905402851303 -13.247228029373309
-23.088889013485975 -7.663340659569513 -13.240098740860955
-23.033439752846473 -7.657225590873112 -13.23357898944689
-22.958913964997592 -7.63806066835776 -13.223861339095153
-22.857645130780064 -7.602795518720916 -13.207156781240622
-22.805524499093107 -7.584745378854323 -13.196202124458837
-22.741019276331635 -7.564074986503952 -13.179246586653388
-22.67413059793413 -7.541718671152889 -13.15874872876123
-22.59553968121263 -7.518454255007573 -13.129113971461802
-22.513677874980356 -7.494422322703789 -13.092974161560068
-22.460717925940425 -7.485045466078996 -13.06643337040449
-22.40786882438227 -7.475246689566869 -13.037803172781409
-22.34934187582457 -7.45784327963394 -13.003585373306526
-22.303670257987665 -7.444130225648547 -12.975233710578442
-22.24720402898494 -7.436087322545382 -12.937698268352992
-22.20412269212733 -7.4260604596410555 -12.908003651775944
-22.163772947502903 -7.407957862829995 -12.878160951335225
-22.09956525859626 -7.3728770398392385 -12.82971526553617
-22.053685853150597 -7.352774042926425 -12.792465831552514
-22.003407099288076 -7.332802587494177 -12.751398124012086
-21.9604090319976 -7.308044635955515 -12.713903622602835
-21.907535857268005 -7.2781538290626715 -12.666353038948658
-21.85327751312419 -7.250498723568635 -12.615958359508069
-21.811646412897456 -7.232047054283933 -12.576879023124338
-21.774491219962123 -7.217293913981977 -12.540770766847702
-21.716223289183567 -7.197838999392896 -12.484116434156277
-21.671297709890556 -7.186068596565882 -12.439898167723934
-21.617492903935414 -7.1640986635046096 -12.385256344551202
-21.563490495261167 -7.135002916169826 -12.328976415899593
-21.51561063589535 -7.113430503483691 -12.277218416420583
-21.47656312245512 -7.094786967968164 -12.234919833735292
-21.433101813612645 -7.079165807249301 -12.18620414222041
-21.389802084592024 -7.065326513908828 -12.136811982767384
-21.34347861867893 -7.045414333888411 -12.083307215591097
-21.290195537402397 -7.0196372567867265 -12.019951643041674
-21.221837626684763 -6.981357533825044 -11.931207098330304
-21.16716115437403 -6.984202100371819 -11.867712872244416
-21.12858823477632 -6.983418268149269 -11.819865044773328
-21.074850360690778 -6.96734543576819 -11.749713822909232
-21.035394851680667 -6.961428741516298 -11.697736849391442
-20.98456814581793 -6.973135902135472 -11.632890826441129
-20.922933336236433 -6.996843207669259 -11.552137070238526
-20.858465105672167 -7.016759487102941 -11.463385220393876
-20.801496495411406 -7.0421689874849225 -11.383854449096557
-20.753122762503875 -7.056319753556534 -11.311506534674354
-20.71890605317382 -7.05792481398211 -11.257850405835995
-20.68858934849504 -7.075159629469461 -11.2113161503134
-20.64717609900356 -7.078328646969819 -11.141881002843803
-20.615353766140757 -7.079381392782104 -11.086040544506746
-20.576762843304746 -7.083877355434922 -11.016625756446436
-20.54826783953805 -7.091689156980702 -10.962700114562523
-20.5163589649209 -7.092884826047044 -10.89861155499856
-20.473956820162115 -7.095383589671204 -10.811191466538679
-20.448637056532885 -7.091162840082301 -10.75702515633681
-20.416234227589538 -7.084570660248979 -10.684968190726474
-20.392421217355103 -7.076110621903769 -10.62965150255545
-20.367708997288776 -7.055137815747573 -10.567838005135277
-20.34507106484206 -7.013741396316199 -10.505500721561454
-20.320034692563187 -6.979523116951762 -10.432095094321634
-20.297822591169083 -6.964089160725359 -10.37073589481138
-20.280568640763587 -6.956578737799989 -10.317361694438743
-20.25756320646785 -6.9583174820089315 -10.243771288417541
-20.24259247549691 -6.963601424067008 -10.190792414176265
-20.22389631835357 -6.982416026321289 -10.118038323260144
-20.204180627693653 -6.9982242149356235 -10.023275489692978
-20.189357892915 -7.001367059683293 -9.926047211633923
-20.183043026895056 -6.987807417589737 -9.862092214328461
-20.18028578198285 -6.974493783346745 -9.807433830039404
-20.177763604301653 -6.967498388032569 -9.749867129745336
-20.177645650911916 -6.9648120811995184 -9.687322048524077
-20.17983039793579 -6.970116627869812 -9.631503740201317
-20.18620853141913 -6.957060326063208 -9.555062267447328
-20.19463283995908 -6.947701774618834 -9.486644668571103
-20.2078283961935 -6.975840877131582 -9.405848865735088
-20.222504119918778 -6.987014305365544 -9.333523450683307
-20.23624298802176 -6.99373846899678 -9.273087849888809
-20.25224329199457 -7.004580084984575 -9.212456082448407
-20.27653312701209 -7.01354162850585 -9.13025365325779
-20.299223819228853 -7.034354749611598 -9.063434642306659
-20.322082266634563 -7.0545356657179745 -9.002836026935073
-20.34720310034941 -7.074596837276694 -8.94231881009774
-20.377639187411464 -7.091979348009737 -8.873777332052837
-20.40080309969457 -7.087937381487022 -8.818626465786306
-20.428124998386725 -7.074959167686114 -8.754474807929663
-20.456763683399576 -7.058890532572882 -8.689917821392754
-20.48721571969518 -7.047111080210799 -8.626000228545797
-20.520304856138768 -7.042624798533568 -8.563315851850739
-20.555914347481885 -7.042947009588623 -8.501868799182063
-20.603578859246014 -7.0426951076382345 -8.423930603250266
-20.630189247261384 -7.030364565824241 -8.378285126083638
-20.674440042728097 -7.0096339211538155 -8.306214796518752
-20.707327208853055 -6.995766478659776 -8.253487822345926
-20.741028794852205 -6.983651542577556 -8.203077784528215
-20.783438447899368 -6.973739508520159 -8.146766688247856
-20.827019550574256 -6.953209153427022 -8.086685915628943
-20.910585875924223 -6.94764531381314 -7.994447451443205
-20.97626666148866 -6.947205708961329 -7.931304959637511
-21.016677749723733 -6.936675703167245 -7.89078079483355
-21.05306280569554 -6.9239037706073 -7.854167709138264
-21.112463479957352 -6.9004476868798665 -7.797441666237234
-21.15008451935394 -6.884195787843107 -7.762759914362632
-21.18856081845935 -6.865947845736512 -7.725033699849887
-21.259880567676714 -6.866593708198894 -7.678223345715667
-21.34386473291284 -6.865668015304996 -7.6230251277684635
-21.441571620610745 -6.8776838244566845 -7.568604632411875
-21.522395718094124 -6.873370461125098 -7.516680285016526
-21.590358337725853 -6.856580168599637 -7.472855704243103
-21.64325239501161 -6.844765621238332 -7.4398389444066835
-21.729836914562977 -6.853877929006925 -7.395842491248335
-21.824727478178012 -6.86750516132015 -7.349806181855481
-21.920637521267437 -6.872509232197148 -7.301847280825383
-21.983917229532913 -6.882572284490258 -7.2725833142272895
-22.03046249286555 -6.892327789502893 -7.251638698181923
-22.10014954542937 -6.892053900484033 -7.217885908641532
-22.15338821623051 -6.87444931748527 -7.185694436279995
-22.2125874136465 -6.8479891677985485 -7.149377143774942
-22.312855263501653 -6.813402333559844 -7.0909963159301315
-22.40203981577188 -6.8157614648893485 -7.047754631084993
-22.471587348228134 -6.814746943479575 -7.013324462697027
-22.54340777418006 -6.807471502872113 -6.977017572469226
-22.627164133236178 -6.779854466671297 -6.928240284689416
-22.709686157564455 -6.76685625695618 -6.884204149914119
-22.756517018188795 -6.736568063663588 -6.8522970512165005
-22.830576995050166 -6.704821042426136 -6.8064831820132055
-22.878064778253815 -6.6850483983815066 -6.7767719365719294
-22.932176102319527 -6.675788960988277 -6.74659362603987
-22.987702853795845 -6.653827720751568 -6.712374761507406
-23.061503972648456 -6.629781498332413 -6.669506528673108
-23.112682326122005 -6.594588975043275 -6.633481537061701
-23.16264008056075 -6.551493594242075 -6.597544130326857
-23.201585890217117 -6.5264810628927155 -6.572427149867627
-23.251370383750718 -6.471644455794547 -6.53516650492601
-23.299752592660973 -6.410806140402636 -6.497820317576328
-23.336808084609466 -6.359692290010708 -6.468758169706593
-23.382554441917204 -6.29604302364829 -6.433329234455524
-23.4340772209276 -6.240811272155142 -6.397084248584864
-23.470350197261908 -6.211721390249257 -6.373628521210747
-23.507012148357518 -6.183991142592472 -6.350512834069812
-23.551218283168247 -6.15322062204956 -6.324231481942101
-23.597457291656344 -6.127357061246018 -6.296190050954152
-23.663992029503277 -6.097056978624676 -6.25816751734203
-23.71509256554278 -6.073243942225636 -6.229107398639326
-23.764102199632834 -6.046000456559235 -6.200717444191805
-23.860152642693397 -6.037290341535463 -6.152090199166575
-23.93457138994892 -6.0242524623066975 -6.113464943658529
-24.02280369152992 -6.00540031126928 -6.068223006692951
-24.11082047996983 -5.982501980312155 -6.0223176417069215
-24.169897266792034 -5.970741809785016 -5.992175834386308
-24.22926878715968 -5.96360225790692 -5.962866201333646
-24.28837080930838 -5.959113458221271 -5.93342516563642
-24.346889980643223 -5.953851028740612 -5.905756666299905
-24.40702019893546 -5.948351170056371 -5.87638960288223
-24.471678117954696 -5.941906052984208 -5.845006552653389
-24.543850740780606 -5.939730744350446 -5.811382728530787
-24.62141355209128 -5.938308818004807 -5.775956712206358
-24.682060237729992 -5.932150126581904 -5.748237767290706
-24.738650343109278 -5.9275129430783196 -5.7229313482375
-24.816408059120633 -5.930920187371868 -5.6902829416326375
-24.913835872225196 -5.948507345620222 -5.649133247912661
-24.969401670848526 -5.956078241218701 -5.627004795428926
-25.0352142661513 -5.947708700254878 -5.600622988346127
-25.085605553118057 -5.942716729080763 -5.58076715609986
-25.168626079006476 -5.938520657540652 -5.549925490549398
-25.227965217076346 -5.939253899525085 -5.528605876220978
-25.292690577836584 -5.9402814773168915 -5.506588876414453
-25.342688601215084 -5.942174071085413 -5.487744841496385
-25.38924506871816 -5.950587363151847 -5.472721264851574
-25.424653491373864 -5.95698659350545 -5.461295918472508
-25.492769800789926 -5.973825804512798 -5.439296082161595
-25.564680213957505 -5.991140402064846 -5.416906904428086
-25.654472167403835 -6.012800093453576 -5.389546134612807
-25.744184837347852 -6.035866310244908 -5.3618928650439415
-25.812792601751628 -6.050745521418941 -5.344010602827447
-25.87963764762134 -6.0672883712126815 -5.324662913029547
-25.947910252174715 -6.085160526636963 -5.305916743253994
-26.01536742936439 -6.102826764255355 -5.287693192325812
-26.107684212548435 -6.124920669310199 -5.263878674299299
-26.21115476210509 -6.120591280525856 -5.237444806864035
-26.28472059794407 -6.117459855718203 -5.218975559543334
-26.346061922635833 -6.112355717406191 -5.204122547617199
-26.413109459127423 -6.104858048655524 -5.188272054003565
-26.475111833456957 -6.098627914082939 -5.174030800164697
-26.5633585190371 -6.092124499586948 -5.153734608143838
-26.673755187048325 -6.098364647559512 -5.128738703243992
-26.744230355760497 -6.099799253707339 -5.113678038391195
-26.801457619866742 -6.10484930051076 -5.100417827579877
-26.86724124934569 -6.105873000903692 -5.085962617298871
-26.948504735882743 -6.106609770878731 -5.068364965066389
-27.01174671382389 -6.10615812746787 -5.055006851217322
-27.06860795732074 -6.107961443017703 -5.0428123300966305
-27.13648129383604 -6.112636539086855 -5.028070646216384
