323
13.641957814269144 -0.19297146161884005 10.527543664970171
13.599920465398224 -0.17467551302264095 10.469666659803519
13.570305807071168 -0.16390769053622112 10.418941889942577
13.534234024417735 -0.1365825468129449 10.34917819037366
13.491534396636371 -0.1041210365795644 10.241964505742281
13.46155364025094 -0.0775006575663415 10.158482909865322
13.445619672119618 -0.05631301418075818 10.09870913064549
13.431008305560125 -0.036432454431382766 10.03737916711889
13.41646261083835 -0.01549877673450073 9.971687439792394
13.396929407242798 0.012618092033763073 9.878091243127983
13.388882653965249 0.027777239164133327 9.822993942401538
13.378440573556555 0.04509245342453294 9.762230530678025
13.370441564681451 0.060795237627479626 9.699964241677117
13.362890969067761 0.08698761885593287 9.636774506022732
13.355791065813861 0.10932672093977036 9.572254849931209
13.346241147101136 0.13013544421471313 9.503236205283816
13.337780814722382 0.14719450762313713 9.446161422675752
13.327694927257095 0.1667959866144746 9.383503088059424
13.320261501521548 0.18580798419805955 9.318696258316285
13.309471994600614 0.20983933886617034 9.24752572937031
13.299292805971973 0.22773082564125646 9.170159505235219
13.288491412816077 0.2485015326541542 9.084681230199838
13.281075661562703 0.2657393842950597 9.017069046784306
13.27499329465343 0.28155213305711246 8.95488145742484
13.269527340040776 0.2964616763539851 8.88136582595877
13.266527916251373 0.30468868542674077 8.82126640822417
13.26245134293507 0.3183880997914059 8.730393860365286
13.25961910332179 0.32731584365921496 8.6223699718401
13.25753116643298 0.3337483713462497 8.553112076215045
13.259909154160576 0.33598761806130106 8.489186097299418
13.266946239601744 0.33922006858337284 8.422705937188905
13.27446358971149 0.34558622725454313 8.35569450300158
13.288006649249315 0.34471869841586456 8.294034192219247
13.299107060311309 0.3386057931608977 8.239554356145415
13.313790352197726 0.3278183953837681 8.183300732308624
13.323978823710691 0.31085089337524385 8.130691134222701
13.33855228022144 0.28058177010782526 8.063736826302627
13.343117714331933 0.2509862666437108 8.015653720474365
13.34589860938794 0.21475795904549422 7.959345079286084
13.354226970042589 0.1722744733670769 7.8955638356541735
13.360244954813467 0.13244497525486176 7.831281193710883
13.37288936073068 0.09434439605924938 7.76981632780533
13.395069356649733 0.040215259578261 7.668784594509195
13.428293318714724 0.010903354736735427 7.577191638993691
13.45928676845352 -0.014937849065958186 7.5062461027814695
13.48463192866304 -0.020552535979604603 7.4564946858919585
13.513238970031697 -0.030047062307540173 7.4102929171355045
13.561018091543588 -0.03495999388188942 7.348763511005842
13.60337867899709 -0.039280368755605366 7.296081669645122
13.669050819797315 -0.05660215477817676 7.219164893301979
13.716002396015552 -0.07317080803933829 7.16704295459874
13.76842012996104 -0.12082214283730908 7.088830759393136
13.805394693905935 -0.14736537773128244 7.0493743307323244
13.845877202049495 -0.1748943419790483 6.999047889892309
13.88646234194517 -0.20607354477086703 6.954101534713138
13.92633302259375 -0.23803085080374764 6.916195496648202
13.964593515210957 -0.26253516715856273 6.876326986342597
14.004448635365122 -0.28871365423463047 6.839333995612677
14.04758105131728 -0.31896893020370687 6.8020184918510385
14.092436896646998 -0.3478882100015954 6.760921508155007
14.137541766252939 -0.37638501259049395 6.721235359466997
14.184575098391603 -0.4047620471348834 6.683126071442376
14.23684041739868 -0.43963815613150903 6.644338639629737
14.2887277079688 -0.4776533687029454 6.6046591032033195
14.347722695889733 -0.5228780997782907 6.557815256898911
14.388881451147453 -0.5475212031421717 6.532319061147014
14.444748633761675 -0.577602117585664 6.495881758885484
14.499512911786614 -0.6075467876667091 6.460520927763747
14.563619738373298 -0.6484816184367865 6.42577131868665
14.655319411691986 -0.6875693801673539 6.3806459686362
14.744987276947258 -0.7240070071877511 6.341596239463684
14.799404478283277 -0.7429060513144861 6.319123848806074
14.872510373274068 -0.7691974109890123 6.294461247654423
14.947816498622771 -0.7960431505191949 6.270899747498486
15.011041787681997 -0.8065549441516056 6.255825935137134
15.086611702345353 -0.8186371235470264 6.240878740823149
15.170851010543467 -0.8427533455774499 6.223027955534334
15.23682949392198 -0.8663715840622559 6.212459429137581
15.303088924968256 -0.8900454508216749 6.203221078772783
15.40098794112308 -0.913178051954284 6.197330020040116
15.47058434077862 -0.9304170639382097 6.197297541479074
15.55857946291426 -0.9580601236088366 6.201276088994796
15.638327482682312 -1.0051950610182439 6.207221326527318
15.689717313437725 -1.036784158009969 6.2108679686077055
15.750228179640947 -1.0751272110697319 6.217353776629361
15.81426052612616 -1.114013654210647 6.227337551529281
15.866452419779186 -1.1418123437086627 6.2371367027242695
15.942220524984714 -1.1728204967047977 6.25395341563412
16.02095288085001 -1.2029533509078552 6.2772161965696895
16.0841367141992 -1.2238552348421392 6.296703258743422
16.14606930838903 -1.2425160006252352 6.31505760269856
16.20760081133891 -1.2627390214528313 6.335665921773742
16.271147908592077 -1.2751799674939013 6.359092923920004
16.33479989779367 -1.288103980630889 6.3863566356678225
16.434083285227633 -1.3031741323637176 6.4304027470900404
16.514942757201133 -1.3075381006119813 6.464235394696189
16.605866028806513 -1.3089511921539818 6.509174485793986
16.674838151156575 -1.3059580658647987 6.54427524147371
16.722497748129545 -1.2982610792868363 6.569968037468365
16.791315655746306 -1.2918612537989513 6.611688558205376
16.886410951888788 -1.2826125847136691 6.661518477513628
16.953228331095 -1.2787809801058772 6.698175688156907
17.033455763185216 -1.2673733533997953 6.7431225182291605
17.0773872697484 -1.2652900892077938 6.770192975177961
17.122994403188546 -1.2640021964464812 6.797429667429249
17.186869451464663 -1.2609831990511653 6.833007375959875
17.250427104871704 -1.264475324914425 6.870253882807032
17.31955352982641 -1.2655843690331703 6.9100185848776725
17.377223568413356 -1.2626685746652324 6.943894837753153
17.445509162298563 -1.2613233138145756 6.984943074221425
17.50173616379563 -1.2655846370174915 7.015189171050664
17.574382381151587 -1.275655200343215 7.056486173197883
17.62242933483205 -1.2826989288285546 7.080837060310625
17.68199713610075 -1.2896973136890026 7.109195740142787
17.741517842515396 -1.3010750491564453 7.140215344054444
17.801480545320818 -1.311156058263056 7.170577773081922
17.86074609010518 -1.3206615907139705 7.200561135361677
17.918525368853963 -1.3353769098481891 7.230565000579455
17.999554207509114 -1.3581040704298164 7.272763543963155
18.07881977733847 -1.3894394571098347 7.308949019511228
18.13810162135002 -1.4187171066293598 7.339322022494155
18.18456630492512 -1.4379871593198783 7.361206856902175
18.260191888334944 -1.4815407556007338 7.397317589319453
18.327803274756327 -1.517121315300116 7.428850749471496
18.418625734933222 -1.548706654961841 7.481312299707913
18.514926476825337 -1.5510528357616484 7.53811817498749
18.57409513831413 -1.5570680898811342 7.5742568265613786
18.63945532439921 -1.560744531092897 7.6146010089188
18.70139623768194 -1.5674469527417125 7.652096944716088
18.764387311936282 -1.5756836309618745 7.691894095212438
18.8173604557499 -1.5792225338851325 7.721067891904826
18.8889726150614 -1.582409199459673 7.767166080225832
18.948444580933234 -1.5847107461906211 7.804533302924386
19.00872793693251 -1.5800898042950575 7.842187902288591
19.07869128399454 -1.585378280835434 7.889572314220846
19.18255209758419 -1.601424916019088 7.95133228091679
19.241742522245858 -1.6129973077727557 7.98792062638529
19.29894104000399 -1.6170610848555163 8.022676854006896
19.367510545560744 -1.6231861938617635 8.065919314307205
19.4268640894649 -1.6328788865198764 8.103626875697406
19.475783432490918 -1.6391083180774968 8.13493479143321
19.523827182315827 -1.647852327053878 8.16794407371497
19.572884571691205 -1.6561534612992777 8.200748180813966
19.640235868613164 -1.6656063377083514 8.244936521870052
19.723098727655263 -1.6659143251995812 8.298661977282372
19.82873547232225 -1.6491164623811594 8.365248036606461
19.89654562175713 -1.6364244651443787 8.408227718769734
19.944451093252688 -1.6304670644642423 8.436180827170054
19.990296041698468 -1.6243883068331388 8.464642005764947
20.03497253955556 -1.6161827945180647 8.49103851349956
20.077395721887672 -1.608536442865229 8.517739686649964
20.136709208349693 -1.5987319447124206 8.553975539252434
20.194745238873278 -1.5952837914660227 8.591895390035678
20.245016057343936 -1.5844784208819067 8.624564131210231
20.297221761525055 -1.5766169119871376 8.659448676240546
20.350019437842555 -1.5688754499809079 8.695724349455851
20.404817563765388 -1.564524338580055 8.73718876602365
20.450537605398043 -1.5622178443807 8.77511781530849
20.512566348730044 -1.5525820845978728 8.830587392631635
20.569611982774582 -1.5368543400531225 8.888186436248258
20.612855954329067 -1.5250581292738183 8.942369509284458
20.666524594402546 -1.4919629129778773 9.02122402113472
20.70155527494162 -1.4697937537186934 9.076661328571253
20.734565328337503 -1.4508306530382273 9.134076639583622
20.758014083714954 -1.442864301934459 9.179214539330934
20.786325701140616 -1.42896612430774 9.2311947586035
20.80954394188362 -1.416137417596037 9.288091996869493
20.83448012638218 -1.4069495586799137 9.347241409425393
20.857899372043487 -1.397499679039043 9.409547439245113
20.88305389424759 -1.3718668111041834 9.495367093272511
20.904224659199176 -1.3372082985845926 9.572618506803487
20.924527034255966 -1.3132210505060646 9.65177675644664
20.935921935086327 -1.2993681653923113 9.699741773890416
20.95128557542204 -1.2782634885559752 9.773034093124277
20.96202276707496 -1.2639827445698133 9.823453307028757
20.973219398116854 -1.246600680786388 9.89258351639693
20.986780898266318 -1.225969501141382 9.962172026862753
20.995681618358518 -1.2115143652044889 10.021771538512237
21.008936118059463 -1.1899597710480896 10.110235608096222
21.01758505261718 -1.1751879130414689 10.16753089042716
21.02625963150956 -1.1583248026291173 10.233991082005872
21.03334414561605 -1.14064010837516 10.30139383419775
21.040006958443406 -1.1226097187278836 10.366098338230577
21.043550340597164 -1.1074034063666882 10.428513616887964
21.04768159361844 -1.0907558268722728 10.489791059422263
21.051341097460984 -1.0746613949683008 10.54615724482603
21.051082899697114 -1.060939475789592 10.605353493430412
21.051357838156555 -1.0425845137908356 10.679944945303511
21.05207768368499 -1.0228841877291317 10.752248271012522
21.045722276916354 -1.0075453225307711 10.82269477419219
21.04153159543517 -0.9842426072607544 10.908387103877866
21.029187445281682 -0.9644532240972721 10.989297296231511
21.01061594672625 -0.9404769638792361 11.0787644117929
20.99694881891499 -0.923899688516544 11.138166491004327
20.97943773070815 -0.9144509246854196 11.197167528549633
20.96026343555214 -0.9062990353019194 11.259717318633712
20.939346740388405 -0.8968035004362949 11.33229187998462
20.92136697440059 -0.8924649220741911 11.382163338024926
20.896802599237713 -0.8855217789255092 11.445506091255949
20.865428452777245 -0.8772297793352188 11.509194176752414
20.8334272021604 -0.8702979181320751 11.576156980364225
20.801065126593745 -0.8660839376041447 11.638690927569735
20.77390598376106 -0.8620722354064205 11.691639043857151
20.74600520162302 -0.8570585684221004 11.7464135950576
20.71593322728067 -0.8503010231586645 11.801258718999964
20.680681589567108 -0.8441703255152928 11.854031180386222
20.646141871737324 -0.8362868977835305 11.907471252747298
20.60765811689229 -0.8261629512311084 11.966609425617769
20.570558616675296 -0.8159581745883826 12.023595512369498
20.531587541186582 -0.8084753757417822 12.079945724041234
20.49023171212552 -0.8021430591032379 12.137871427386171
20.449246706802665 -0.794414423155944 12.195936453109832
20.40584609013948 -0.790086855507957 12.253238078256487
20.363272218468357 -0.786576100141466 12.309059251800832
20.31749816768482 -0.7817450240510551 12.368250227659889
20.242369432267868 -0.7781529079441822 12.459163422008157
20.19216510042677 -0.7758343342286802 12.518139935002145
20.126703271551662 -0.7730453657704459 12.591547912879943
20.070564479832484 -0.7699759031467963 12.643187123371565
20.018371291233795 -0.7680593437449028 12.68853499905925
19.967026675904695 -0.7638954771913313 12.731610888572316
19.914832663431273 -0.7595926377983409 12.772655529886466
19.8637433772159 -0.7557765050798435 12.810412432421133
19.809320937862335 -0.756303092834977 12.844688870904065
19.751016482783808 -0.7554140683908965 12.879830000699489
19.69350306236921 -0.7549330322211765 12.913561291214197
19.632567856202353 -0.7582014771715362 12.94622700709565
19.57104404272268 -0.7613533721405015 12.978443722571619
19.506436128825744 -0.7665246720750081 13.009601516769013
19.455174297863614 -0.7695777103771699 13.028516844289664
19.376859035565325 -0.7761632839148029 13.059905443611514
19.3099532377676 -0.7777251030669012 13.085047238730107
19.252803353488762 -0.7849949429759362 13.103134530581261
19.13178269627115 -0.7969755414257085 13.145788563940165
19.06186659435661 -0.8007282163097611 13.163651852786215
18.963016934429557 -0.8051689402110309 13.186796232603685
18.880344205179117 -0.8116079193735151 13.206414364591057
18.814065815345415 -0.8200876097277066 13.220706817176392
18.74786212166239 -0.8293285622700117 13.234894045456528
18.681396165281157 -0.8301640697596275 13.244093804263349
18.617946176859938 -0.8336733771726552 13.252866906971887
18.53372486474102 -0.8424436166542795 13.2609799315985
18.39493788989277 -0.8757751163292091 13.283965989582464
18.304427985147367 -0.9012395128130435 13.290616658756603
18.237437161035484 -0.9331205908680413 13.29446869378688
18.155457959790336 -0.9711193104862264 13.298638571727052
18.0894606478243 -0.9948856133485187 13.294528351372191
17.994003200993607 -1.0200390190197683 13.281702255139457
17.9163976329419 -1.0482617546622088 13.268518821601873
17.858712593487354 -1.071702633849022 13.255296046788182
17.800174068877343 -1.0957974389727356 13.241175887543749
17.74211784590011 -1.1210931599781173 13.223452507009842
17.680654582671657 -1.142719082442869 13.204299369383904
17.615108341287733 -1.165107448398538 13.184244230956477
17.536243442087695 -1.1906092191595326 13.160145663359641
17.472848786941316 -1.2142439958909246 13.142983001420081
17.38680058562646 -1.2468544850174723 13.11472441159766
17.327392453603796 -1.272501215829363 13.09348835033964
17.266023943699736 -1.3040094495583254 13.072513842328465
17.219384972528378 -1.3284817075152286 13.055554663040626
17.144897809176936 -1.3497635177441305 13.018231555807104
17.081635329192398 -1.3645345282453727 12.98764985263133
17.032702004744994 -1.3717797863479717 12.96106132127814
16.968516190477438 -1.385439030345644 12.927656790723885
16.90756517112762 -1.397815451835383 12.89543079354107
16.84138551023498 -1.4015439017510667 12.854647227635132
16.770972789342597 -1.4045245663331396 12.810585918319426
16.71564474698658 -1.4049955818348714 12.772801319905403
16.634637977307108 -1.4107868069170713 12.71894161477002
16.561959237871427 -1.4139498765036058 12.674676981177166
16.48963707648169 -1.415035211769772 12.624711625626636
16.427780961039574 -1.415204728335983 12.583127285998268
16.367450545882924 -1.4124107336358167 12.541408560433759
16.301120530730074 -1.41042639652006 12.495341371835229
16.249964253452124 -1.4101401230635748 12.461265955642736
16.19726514374981 -1.4096176860257228 12.428631172098243
16.14238638957922 -1.4073278894228152 12.396889734655268
16.087318867740336 -1.405003951442044 12.36669417011315
16.03491621938974 -1.4064730851810934 12.333802404024278
15.978279495152323 -1.4061854122168747 12.300484515318201
15.889257105510909 -1.4021778735731614 12.253409068500252
15.823253442398443 -1.3872854620080037 12.219738135904695
15.757880067003255 -1.365993122894491 12.188342548551866
15.70227879192449 -1.3511083054305808 12.164521119371472
15.64894894942382 -1.3414648415451953 12.139510076092401
15.593507416379062 -1.3275896667788993 12.11650762084239
15.5392138537773 -1.3129541852376687 12.091240012818202
15.451402321995605 -1.2818671340400052 12.052305125126447
15.374117061216655 -1.2452778426773166 12.013677467587716
15.323798982992008 -1.2204903109752232 11.988456690049292
15.258250688113707 -1.174756764957205 11.945487217283846
15.203255493330243 -1.1370733345647084 11.91178188142793
15.149543643432853 -1.1064957181197097 11.87545740151324
15.092709550890957 -1.073137269943448 11.837623211481565
15.030503956959752 -1.0374820249198335 11.792082045573773
14.970626075194565 -0.993839194711704 11.739749578803528
14.919184792823978 -0.9547144227311217 11.693406069645416
14.882019356751167 -0.9256482324164732 11.660531672113368
14.836766757570672 -0.8897037004453279 11.622446144717951
14.792513658345205 -0.8586801700901674 11.586073451542257
14.745729920080917 -0.824269407421552 11.549778100020534
14.698136103341042 -0.7953442037551495 11.51165209545085
14.642911955529557 -0.7652165572430438 11.470167905597581
14.597686851210499 -0.7411286829084718 11.436036726427092
14.546531722593794 -0.7119777766260174 11.39703773372172
14.494225652637422 -0.6805775269470971 11.355745513020706
14.440575449964543 -0.6459668961147591 11.311026079752956
14.391725541284584 -0.615329963106866 11.271135148758873
14.338888434796212 -0.5857615442282547 11.229805653257305
14.286966963328789 -0.5588253096457871 11.188109503954694
14.234616896081913 -0.528313114106405 11.14398665367429
14.185074081408537 -0.49730812739365615 11.101742598892947
14.137430183097512 -0.46918517270937077 11.057603708569765
14.089546708583468 -0.43836501566988595 11.01269459763562
14.043313640024195 -0.4083774363948969 10.97111618205592
13.998441234007107 -0.38313341526654376 10.926747486037597
13.953500670820851 -0.35438952134402735 10.883766252202712
13.910936970336126 -0.32875348407912286 10.840417368395453
13.877073128985632 -0.30919947078110166 10.806487652518213
13.829883397162485 -0.2850840979189866 10.756194498655368
13.791584493644086 -0.26504335323434036 10.715472303057208
13.741704332234207 -0.23921451628058588 10.655722325674112
13.693917182743462 -0.2123637815535151 10.597694798080884
