308
1.5814085596503378 -9.454863406977577 7.396909621719129
1.562317480748265 -9.456029790601677 7.46251281929354
1.5460432229334788 -9.45656770244085 7.518613587295741
1.5317038552461617 -9.457337181710482 7.569537567142508
1.5182979234513336 -9.463064350484938 7.626880346636723
1.5035978254707376 -9.462329182920955 7.689156170004557
1.492457723006917 -9.462054805857312 7.748433634637982
1.484552017433919 -9.464804878432757 7.804757627942259
1.4783250075851928 -9.472452333386926 7.876182670938604
1.4765561378496277 -9.487404598729299 7.9804536805726
1.4772928502499387 -9.492187334122397 8.044172396718874
1.4794285425552682 -9.490664590359735 8.096477260521404
1.482962476953071 -9.488836158014202 8.150148715440753
1.4882236326739586 -9.48758151002128 8.203237680931785
1.499788715113159 -9.486165450247098 8.291269091411753
1.5146624018808779 -9.474955495006704 8.38292341509456
1.524925325957791 -9.463294276299205 8.437876345835871
1.5401001651367792 -9.44587054031715 8.513661897783068
1.558123789045716 -9.422787617954855 8.597260484512567
1.5706014389474867 -9.411351327211609 8.649963655120516
1.5894312832970026 -9.405490832512344 8.720019971957278
1.6066533882343124 -9.402775102114962 8.780041104441514
1.624977435849293 -9.395345512466053 8.845225324402293
1.6467607689822117 -9.384467137603695 8.91649259700349
1.664106019468698 -9.381299618250958 8.978227917938089
1.6908515004079478 -9.379922789612941 9.064796278551949
1.7124891300736826 -9.38796594633329 9.126664950668648
1.735554677512587 -9.402351928622867 9.19001372072399
1.7628473800786857 -9.410252767681394 9.267371368614928
1.785602836167179 -9.413236889108441 9.335882834569443
1.805259690509506 -9.420283278937951 9.392346866308287
1.8339057536962597 -9.441004456348505 9.466995811777679
1.8607745322454803 -9.430753214806362 9.562527646032718
1.8879238295527543 -9.4289068028331 9.65486375034891
1.9024760688751576 -9.428898761857846 9.705568022480913
1.9246230011015402 -9.42790289720925 9.788243580866684
1.9512306115441573 -9.441373458340037 9.87645313556813
1.9686968220483414 -9.43608403849372 9.958078355119424
1.9830891274783125 -9.437928039911835 10.025376518533196
1.9978675833622797 -9.443866064632841 10.108023521247153
2.0078193318892517 -9.426588287361083 10.198048930824232
2.014899569800486 -9.42378480145071 10.263339599996424
2.0259310493547256 -9.43871206702332 10.324393377355406
2.039784837744631 -9.45853142147932 10.422557949686887
2.050828263372228 -9.470440454721974 10.515470645117992
2.063291614005127 -9.50104736688827 10.596148350481975
2.072628108246227 -9.521451661515872 10.667461770917448
2.0816799354169118 -9.53951309004542 10.740324930582242
2.089712438025547 -9.555043484631799 10.806467377563589
2.0983314150036114 -9.569222020814715 10.871264696455832
2.107476915184461 -9.581189789056573 10.936691105177474
2.1196210719150916 -9.594296167351143 11.020273993712818
2.135660345191791 -9.617903965899728 11.104720237170485
2.147463443795966 -9.627692154265286 11.165633820534765
2.164314071301697 -9.629912991725979 11.244674766605215
2.1804224168343183 -9.637786838823565 11.30690617780267
2.1990350152042453 -9.653180111392455 11.369513003151113
2.220016937758983 -9.666390414689214 11.432158425353565
2.246585353393767 -9.67848008232965 11.50328910346273
2.269289805372919 -9.69148141926639 11.556363155099849
2.298365797562283 -9.705184879187046 11.617096394755372
2.330021122020127 -9.722380824912255 11.675568651047197
2.3626889836951563 -9.742210220177798 11.729145368818171
2.3935651650848864 -9.761108297172791 11.776177384087186
2.4267476644083974 -9.781649150217559 11.82286919609578
2.4614586190833494 -9.803600364126828 11.87052512223881
2.4978324239444323 -9.825722056549543 11.917329196424006
2.535732223045806 -9.848508163637293 11.964749870504512
2.5755930557307094 -9.870524794144458 12.012626516517795
2.61313234655025 -9.890055240207149 12.056892224580658
2.6597315873205467 -9.912863586708742 12.110060271559792
2.7036730410409024 -9.933026020413251 12.159473608664785
2.7494225542523854 -9.953167133356642 12.208585304626842
2.7961018083989737 -9.97343403864867 12.257887678276003
2.8502412657104257 -9.996810804312958 12.312876417089038
2.8924043560762893 -10.017330478526027 12.353497726907545
2.941637620216814 -10.042063340091863 12.399620457620184
2.990546742953712 -10.067013337959377 12.444294492088373
3.042424348084702 -10.094733794621561 12.489145662623686
3.093411989015629 -10.121733177551251 12.53244573061717
3.1462110795703166 -10.147899017260288 12.575276062558595
3.1977449522822736 -10.172272038461038 12.618505501979788
3.250374062495979 -10.196194293644051 12.66104847499529
3.30433924443983 -10.220140372562465 12.702864857980106
3.357146518155772 -10.241721921864226 12.743728901618024
3.4180982706758956 -10.266173243692025 12.789533970794977
3.472746781656838 -10.290246953562328 12.828247868599382
3.5175594886373363 -10.312899582244977 12.857613008004682
3.594470339664272 -10.35167686285295 12.905668306068671
3.6712757754773673 -10.385265447707484 12.953304726834308
3.755875235377351 -10.431003557999658 12.99782815911907
3.81769146211768 -10.46646337489634 13.026813723886606
3.8658522888527758 -10.491582413750667 13.048595624536265
3.9334428890653124 -10.521012441017092 13.080516285351992
3.994529479365907 -10.548432196653668 13.105583669000776
4.0567477926020326 -10.574040131647582 13.129725173380944
4.119921919347656 -10.600330986108425 13.151373872038448
4.2042323781280375 -10.634020302551951 13.176802715096386
4.271230256427622 -10.660891585007295 13.194888309843137
4.331345667465662 -10.685278979470407 13.20891857684466
4.401457654957678 -10.717065196804448 13.221270669191366
4.467277049504701 -10.74437690432582 13.232198215494059
4.5340945126628425 -10.770786917977722 13.242054220322723
4.61460964129932 -10.798730112596512 13.25354213806254
4.6683433891755115 -10.820948069628642 13.258189637521273
4.733914675737098 -10.848274289846355 13.262091359262126
4.799730078171291 -10.87649199326612 13.264451045088043
4.882636680492055 -10.9113376675702 13.26536654854651
4.930654619444427 -10.929028690203777 13.266505657992136
4.996738698143814 -10.953394690084934 13.266576609151961
5.07844951816324 -10.985818373999376 13.264041675486439
5.1515386226329145 -11.008867741633237 13.26271382775292
5.21408716197898 -11.02961825832015 13.260024005491129
5.275110944183534 -11.05143401368425 13.255542963685503
5.334702217380014 -11.07452397669454 13.249205077282134
5.393203033991899 -11.097187696825737 13.242089346194454
5.449645935774634 -11.117856762996269 13.234907694761947
5.505102941714672 -11.13691008340395 13.227401520366335
5.559165303220856 -11.156353063125676 13.218905213813542
5.615949534828698 -11.175773265727347 13.209278121445134
5.669866868919765 -11.192883692529522 13.199126581640087
5.740052480527439 -11.217784959702058 13.181966241675097
5.807181063449377 -11.242032908343147 13.162024940258572
5.872897653237886 -11.265027584029957 13.139023757998979
5.937257983835637 -11.286301841120755 13.115071431135163
5.999667505443702 -11.305486445817033 13.08840445955676
6.060585119672571 -11.323459939194738 13.060407924537438
6.120568101548559 -11.338434069585551 13.030926201638236
6.179086348839747 -11.351106257784886 13.00062305557225
6.240487018412259 -11.35956457366769 12.967979679863337
6.313887001595263 -11.367817723021401 12.9267689962708
6.385195180048137 -11.378401669154266 12.879945099967237
6.443734115354472 -11.388180230175513 12.836563651302603
6.493860567562462 -11.396367968050678 12.796796679980634
6.543428363304948 -11.401595277016163 12.756891115240336
6.591937273278474 -11.406325224511761 12.716256646054935
6.6412875422886595 -11.410115660264417 12.672354428877162
6.685617219663256 -11.411597185556984 12.632904945322288
6.737791969498995 -11.407079962918433 12.587919449173857
6.7939706231386685 -11.393167712737569 12.54205553190376
6.854767675180367 -11.38199722443875 12.480613592935258
6.899788869104676 -11.371921091052323 12.430906728958929
6.9488906346393735 -11.365183181457576 12.36630579274535
7.008933125595315 -11.343093240068796 12.291324724662948
7.0603164265419 -11.333565969876394 12.207796606350088
7.0926490625090635 -11.326825888486525 12.1510429716757
7.13545401007091 -11.307256162784878 12.081596517160996
7.163796596766825 -11.296096169448182 12.029485960145198
7.194652521880969 -11.282055896012766 11.970704076048712
7.223628430023704 -11.269277469673264 11.908060648776036
7.2594542284508075 -11.254536886216917 11.821689586274239
7.2985560450784375 -11.235295706853805 11.717841901891942
7.326074598970625 -11.214468572310572 11.64760406761355
7.35980798769567 -11.192162322687514 11.531911409333224
7.390328497798234 -11.160917373629404 11.417098372751937
7.410864355228219 -11.138781290065973 11.301388595947678
7.422728849347064 -11.11788922939421 11.210562402640297
7.428982853895138 -11.100303926319512 11.151246091898708
7.4336473346959115 -11.082156593300335 11.099353037859622
7.437131787025719 -11.053111114578478 11.030354601565207
7.43730093238696 -11.023460119409403 10.955257272481207
7.4345420599001 -11.009823442536709 10.905816541259943
7.427998743090741 -10.991216669034326 10.835803249236502
7.42030777375077 -10.973090918705282 10.772535740388138
7.411044685471688 -10.956101519893483 10.710938049312919
7.393878013352814 -10.929921073629563 10.617042717419256
7.378747274013322 -10.916166342111522 10.548904289203472
7.359444000324344 -10.916108884560556 10.479654046650376
7.341517715555841 -10.904170984464988 10.416815335780651
7.322463408550003 -10.88974797399656 10.357867824843831
7.301134699849462 -10.866833134991934 10.289516094525146
7.2777066909683255 -10.85037349718238 10.223658229499883
7.256656168784901 -10.838065880103036 10.166564040476286
7.2383197155439865 -10.81722390628813 10.11326264195926
7.1989778019840385 -10.788258728276165 10.009776961660013
7.153989635512121 -10.783537850441068 9.910563920724815
7.112605804253634 -10.769537887753467 9.81693114120155
7.086434060738152 -10.748684174010586 9.749781754571359
7.056575941085428 -10.723470888657781 9.671848204193187
7.015381829778341 -10.720327789912716 9.589278956857857
6.964138597442367 -10.716954700612716 9.488654593837026
6.9343055152179 -10.719231036039602 9.434165476162992
6.895180407779709 -10.723568478459272 9.36457667570405
6.869939344781437 -10.728077027876846 9.32016195278021
6.835243248910378 -10.728292632642518 9.256619831139739
6.803075149846189 -10.71864931773945 9.186963400139675
6.770518323069816 -10.722487016952227 9.127163749402953
6.724600068571157 -10.742680411705333 9.06006212290128
6.683105670246513 -10.73167284972709 8.954251055594023
6.649585058180054 -10.741148119520258 8.877305986956818
6.622520866472704 -10.769076115698875 8.838744650231193
6.585858440377598 -10.823511870001642 8.78261568821051
6.553352623837902 -10.897284522386515 8.726106744348018
6.529255530767979 -10.987815394337352 8.72727387486361
6.507555130100829 -11.054697258933594 8.701529949314082
6.491253582428658 -11.097613897544498 8.680378767442615
6.466117414682507 -11.151930669345584 8.638822314401327
6.437786570357379 -11.214249348627282 8.584901806437545
6.412115675001749 -11.248620563963563 8.518009615060919
6.385140771120954 -11.289629190822687 8.444665634723597
6.36848173800625 -11.313943933623964 8.40016132540377
6.345273044347462 -11.34560859644149 8.341304222358874
6.315782000400209 -11.384807791791724 8.273263145929985
6.297070886703058 -11.390408587993104 8.222172246705375
6.2799950271165015 -11.3901713453559 8.172046809756814
6.2619878239460265 -11.389075334282047 8.12097995989733
6.245841704963437 -11.377990602091103 8.068357569180527
6.220505832355017 -11.295595692180258 7.925736280985509
6.211272625102974 -11.25028406581373 7.888420800812419
6.206660100029255 -11.190383762843092 7.83349091656391
6.184075553325335 -11.149575546669006 7.762483937792412
6.159964075995834 -11.12656993678466 7.688474366928018
6.140622892720752 -11.1112432901633 7.60124828546687
6.115526603613491 -11.108491040110472 7.543113002298007
6.082424899472863 -11.12070560895794 7.477433395118448
6.03167864904069 -11.142338404895431 7.379960482953056
6.001212119288568 -11.151094156184907 7.317804070337797
5.975828983033041 -11.172369505691405 7.275736865163845
5.950176899828443 -11.172504922446599 7.215855364770974
5.907547394053644 -11.19060872817853 7.139152767359599
5.87338712114252 -11.199928870116622 7.071500966394954
5.8418253107132285 -11.195444553534253 7.0013945332875345
5.795241997620242 -11.170162619195922 6.88667502485503
5.776657770684267 -11.145534614971186 6.833534640671202
5.76265396716921 -11.122710182146454 6.788590584251253
5.738379143230172 -11.101010520173848 6.727116570873553
5.716286780807269 -11.062747819229868 6.656597560681355
5.695365485569668 -11.024196385760066 6.592825410089937
5.674289493748617 -10.973158590049273 6.521183369662447
5.654136489087983 -10.929974945263396 6.4576074948961395
5.632406910764609 -10.881704534268067 6.3894181059929736
5.614309916462323 -10.837821940882087 6.333232826177529
5.608050313504768 -10.782360203270619 6.286736822119888
5.590229552912201 -10.745717510544694 6.237011399438611
5.5521529373847835 -10.717202569105655 6.161180472116516
5.5100586301137175 -10.684753763804274 6.080390214453733
5.489298630249199 -10.65526128368294 6.034647562756893
5.465953045021401 -10.628927291772138 5.989540720022846
5.433105951853113 -10.593936967239584 5.929282395023246
5.396237537378005 -10.58356314181959 5.882434969810084
5.330879479439473 -10.564379628087757 5.804604519796706
5.28966216623186 -10.546917285586632 5.757006241891996
5.250029528744686 -10.534818089680298 5.715384857865481
5.213289565783088 -10.524620737290787 5.679260988232063
5.1564217462499835 -10.498551231814572 5.623720488716142
5.107102806864719 -10.498743068584991 5.587109762191179
5.037158367149233 -10.489257278105905 5.538210334680117
4.972675007845096 -10.494267349421024 5.502780338128964
4.910297455656312 -10.513367727315448 5.477429149165494
4.830673844999026 -10.519411120200813 5.444673615003142
4.7655579544685045 -10.524235333931147 5.422725683528891
4.700809467714843 -10.540387284413523 5.409141618163263
4.628604338563876 -10.55827430228005 5.3980844686288085
4.567727378293421 -10.56618120649465 5.39022492924808
4.499615019610233 -10.577097099639278 5.386227076515607
4.416175768827571 -10.593649528478375 5.388160767732385
4.361845013069197 -10.594979550410207 5.388506036037958
4.280602139037348 -10.5974428425812 5.394003760461022
4.193277814431883 -10.60128179587238 5.408874666827704
4.1413965905950185 -10.603964388266533 5.421122321224699
4.090583084344257 -10.607384249530996 5.435769424964169
4.005901967483317 -10.594057349523963 5.453566279006223
3.924084958877609 -10.582389871576822 5.474704624015283
3.8562434613314247 -10.565369119541435 5.4908269342531435
3.779427449055923 -10.54446230602355 5.510591687218938
3.694499608434114 -10.535504175226702 5.543226277071851
3.6210873046204393 -10.512357212422483 5.564796532287942
3.511508216295063 -10.47134735643434 5.59618227142904
3.454548941186295 -10.455216573352223 5.617111950369832
3.385353525864123 -10.433333232569836 5.642734817344274
3.3231270986332904 -10.407234432451887 5.662893890870348
3.2567607901043703 -10.37734400657182 5.684514001618766
3.192857723110068 -10.34938871948751 5.707071715587438
3.130765699410448 -10.322515546122744 5.730422821943222
3.070178110914479 -10.296125242202775 5.754159226254041
3.0118086362496053 -10.27007313066613 5.778030345516095
2.955447191229008 -10.24500802323458 5.8022431131322465
2.9089136726507476 -10.226042619472345 5.824262581219914
2.8486368491121867 -10.20097889864848 5.8541353467680235
2.800344937345308 -10.179716237295336 5.878877736266068
2.736036821957838 -10.146367162116784 5.910908756805809
2.678046762085245 -10.112559393893523 5.944292857430293
2.6218442217787974 -10.08064131930236 5.9801581823468055
2.568844898864117 -10.048569310325142 6.017749386518593
2.5029556635089607 -10.006936172647022 6.0663791651329575
2.446008931162718 -9.968725000747934 6.113542876909536
2.399937133169957 -9.936822745446166 6.154799767758574
2.3552927802293793 -9.903893934483017 6.196078948570866
2.3124437821932853 -9.872104963362116 6.238354568363228
2.271768204753696 -9.84565452402216 6.283284773562293
2.233168558881219 -9.818720214869312 6.327179598984028
2.189087727660531 -9.784020165276935 6.3759758887733895
2.156643085335627 -9.758697645643721 6.412661608059633
2.1157096923396086 -9.728369705331016 6.460883881930295
2.0854851383128965 -9.707664888566713 6.49816473361312
2.055695908440734 -9.688888843581152 6.535146505124166
2.0137636088168285 -9.661586288281304 6.586315567477563
1.9816650928760842 -9.641245669844944 6.624328679445343
1.9377702120279068 -9.616346590996459 6.680563119289543
1.8751765492350323 -9.580801689402872 6.764646461946651
1.8390958592551687 -9.56557975819129 6.820820599838054
1.7985969795738224 -9.539900426735608 6.880571287973778
1.7685538860660066 -9.523431668662294 6.930877501822863
1.7272285174864281 -9.506730490242509 7.0110914263514275
1.6815551352887677 -9.490240920532575 7.111746389014023
1.6493048436122324 -9.475531103514804 7.1883208684784226
1.6249901014913588 -9.466293004644184 7.257124247432081
1.6021664586537336 -9.46007863779846 7.329596778878511
