452
-20.834430109035225 -11.619955841769713 -19.698449061869567
-20.843160794288707 -11.57886289816684 -19.74449761109417
-20.84979689068615 -11.48890142719135 -19.825670026144504
-20.850459794727836 -11.41796641876167 -19.88174336150505
-20.892769506262958 -11.359124793720524 -19.986969859170074
-20.93804724455304 -11.365730076092055 -20.041407580346476
-20.97237577785573 -11.35092221941178 -20.098874798781207
-21.042245402847627 -11.366613053294317 -20.171251289843806
-21.122828406589743 -11.353605768197886 -20.27079423525884
-21.158078949313968 -11.328082827930139 -20.32239334735017
-21.1849914954221 -11.28382576867114 -20.375998057059952
-21.226755454670023 -11.244862341317308 -20.437073589607486
-21.279467353994345 -11.213580328876134 -20.498956504656093
-21.313549193319385 -11.194967041383872 -20.535528950173838
-21.358933412425564 -11.179505649658967 -20.57620004149869
-21.400802502688492 -11.156121756378766 -20.61688811378075
-21.44073826900009 -11.132629900066522 -20.654874181991183
-21.4815914095177 -11.10914696174757 -20.692245549475274
-21.534789326145923 -11.072457205505204 -20.74128802409093
-21.583981414352348 -11.031613931531064 -20.78614319972486
-21.639301465671252 -10.987779233354784 -20.83231224093772
-21.717185919567743 -10.972190342188691 -20.885690068224463
-21.783278132908535 -10.912834798141194 -20.93781875700999
-21.846385818517003 -10.848235539617342 -20.984474311917417
-21.89053646147819 -10.806209549890497 -21.0148342197516
-21.934019615822525 -10.765183802774114 -21.043914303806297
-21.9916266396378 -10.706109147062774 -21.07834380517693
-22.03395708285901 -10.678606251141257 -21.102583878139274
-22.080515983260085 -10.643294155086398 -21.13063412495737
-22.128472768292585 -10.622900831333638 -21.15842461573123
-22.174322653245955 -10.577126536662437 -21.180493942598215
-22.213416851332802 -10.525018531234029 -21.198477416405563
-22.26246620196679 -10.458609290766654 -21.22068227512377
-22.296799596775735 -10.40827224240534 -21.23658314793195
-22.332949120552954 -10.355066585481335 -21.252935413952578
-22.369565966864403 -10.31741474575713 -21.270636617505843
-22.426877356414266 -10.273065279405749 -21.299320307538967
-22.484854056450338 -10.226837224629959 -21.327321022946897
-22.55763762927577 -10.195122364561813 -21.363834160059707
-22.62386436338093 -10.165215848696066 -21.396103125173262
-22.67705158068 -10.156427114291322 -21.423136214976303
-22.75197263535733 -10.141706005716673 -21.45791949838919
-22.79855880319842 -10.122089975544126 -21.47850646356028
-22.85039935133058 -10.098107754868998 -21.50096896342495
-22.912607684151872 -10.067898744989538 -21.52642006873605
-22.98136979862818 -10.03126224461231 -21.552844294420773
-23.029209981180802 -10.005444604886428 -21.570946518034457
-23.091277874402408 -9.978413643699744 -21.5934034793863
-23.163269543050628 -9.950235459803167 -21.618027630797027
-23.216768048210422 -9.903992535746678 -21.63363898720138
-23.271601935583828 -9.858008870872972 -21.648042070219986
-23.345883394445952 -9.803394406484045 -21.66882859671824
-23.443749238410618 -9.765061689694122 -21.69238600892096
-23.540292496913537 -9.722803230645043 -21.71513601361511
-23.604664492551372 -9.68211937019405 -21.726884634980028
-23.662692550533656 -9.64842898959187 -21.73736638709898
-23.72095409483744 -9.61920185212986 -21.748014281877566
-23.772304179478155 -9.594864672135895 -21.757294028728428
-23.82850656580404 -9.566800913753278 -21.767019364514393
-23.910570868822553 -9.518757774015276 -21.77951665069415
-24.00769958197379 -9.488492047677916 -21.79756946753712
-24.05792092823917 -9.472883326411155 -21.80587030486522
-24.10795965484535 -9.44275164839323 -21.812372001806224
-24.183392702114975 -9.394856202612626 -21.820770186462838
-24.252262457643173 -9.357693631875053 -21.82861474904774
-24.321810114330308 -9.32028518849824 -21.83631012972798
-24.38520883165375 -9.302685108492279 -21.845539756343257
-24.456743602490242 -9.279823644178242 -21.854486973069726
-24.557356311551864 -9.254354026995799 -21.86753875705255
-24.631771078962934 -9.231593609485264 -21.875730039665697
-24.699588159336837 -9.209422590823857 -21.882431086585896
-24.788323962277104 -9.178550124785067 -21.889470976031806
-24.870835561155285 -9.134369223030246 -21.89231325430238
-24.95557020407082 -9.085347023800074 -21.893412034394718
-25.02502843163288 -9.074018701874817 -21.89774925357292
-25.09061523016997 -9.06016954554883 -21.901304134787672
-25.17606615151112 -9.032203053352127 -21.90266134231427
-25.219429525387177 -9.020832094750446 -21.9055031610322
-25.286236695608444 -8.987145826214237 -21.900002429981257
-25.338031709126454 -8.957529851730923 -21.896004936867303
-25.39684930747788 -8.921895491246469 -21.889186768976863
-25.45397998103699 -8.889035641505222 -21.882318557124407
-25.50799108125574 -8.858479491078516 -21.875227990751167
-25.563745151907412 -8.82240431214123 -21.864974109787774
-25.619245013109712 -8.792378875474085 -21.85524317251429
-25.676345540574903 -8.761658730808243 -21.843999984169034
-25.735810060507948 -8.728166905384512 -21.83098955896676
-25.813455415249663 -8.684270800271136 -21.811590538533213
-25.8832942104343 -8.653199662034039 -21.79453256751289
-25.964235207795777 -8.620516143408027 -21.774175376781674
-26.057535192514628 -8.581747265278317 -21.748500083994927
-26.13639231489591 -8.525986635547298 -21.7183916543884
-26.20502622769517 -8.513296993799715 -21.700324299037057
-26.272351607579118 -8.50111186313085 -21.681974532432402
-26.34129895001677 -8.474355168885003 -21.65634463447489
-26.42917844942691 -8.433682375091145 -21.623325194937042
-26.494542144819047 -8.410186196848347 -21.598335936954523
-26.564062202417787 -8.386688607341544 -21.571483872803448
-26.62947626093759 -8.37089412754635 -21.545433309017795
-26.741692390897487 -8.357674812667693 -21.503780105640903
-26.84705456750813 -8.333845641943126 -21.457901473330416
-26.906803577270573 -8.31328748306538 -21.429286383878694
-26.969480651627688 -8.297159177049151 -21.39992357545609
-27.060309965172117 -8.255997202257685 -21.35274566763211
-27.142367927954 -8.265838023623253 -21.316566523349092
-27.217461741471098 -8.253581096998078 -21.278020468137168
-27.273271196219465 -8.242526703198827 -21.248860291346986
-27.32728256364106 -8.230385716445637 -21.219388588285565
-27.37949669901436 -8.216566750834309 -21.19036379533223
-27.433679901750544 -8.209623972823936 -21.160616351258618
-27.50231998806176 -8.200836342598356 -21.122994964965628
-27.55739372765552 -8.196248812854664 -21.091903414688744
-27.654379668364665 -8.193540028143337 -21.037909661987552
-27.705644868967006 -8.190663885694477 -21.008370858956205
-27.760665556174413 -8.1800272911679 -20.97494530596902
-27.838259134064653 -8.168618530730408 -20.927133662071743
-27.93590828284907 -8.176953964535887 -20.86810943777486
-28.002749288402434 -8.165620850868969 -20.821894897064812
-28.068414809255774 -8.15305429357202 -20.775589254911957
-28.116515671391493 -8.155381020093738 -20.7427025066513
-28.16550055548199 -8.167063803556053 -20.708683234787078
-28.210120277937055 -8.1733960123792 -20.676201221176044
-28.301292355963703 -8.177633243958624 -20.603832457778346
-28.35124845023059 -8.182140556564455 -20.561915405542717
-28.417548484638843 -8.188367725357272 -20.504165628433476
-28.483929885258892 -8.221953381058318 -20.44863790392841
-28.53348024468776 -8.228862584033273 -20.400222693454655
-28.599673907363982 -8.208690445249246 -20.323436855743008
-28.6398520356618 -8.217553827496914 -20.283422796647624
-28.689782156961215 -8.235660005605256 -20.229699570402392
-28.73575457494077 -8.256789148823088 -20.17845729816222
-28.780569620020174 -8.278683673351523 -20.127397230627704
-28.840519109982235 -8.307766013344207 -20.055842467591653
-28.871193058249876 -8.317579057238584 -20.016717523426845
-28.90046573378335 -8.320098810316981 -19.97425321408761
-28.929431424774833 -8.32120308340712 -19.93055272313924
-28.968290226365333 -8.328255541494359 -19.873725308463975
-29.013399148329786 -8.337724446329602 -19.804118123299173
-29.047899505607884 -8.337261121460946 -19.745881914798453
-29.0765430416292 -8.338018323395966 -19.69767366266307
-29.113400886979697 -8.35505006416833 -19.63850359603926
-29.147702622221836 -8.371298443742257 -19.581720175904206
-29.214297113235194 -8.401461918564202 -19.469263627764903
-29.257237321664228 -8.407008854145891 -19.385194270771684
-29.288194765639332 -8.409753262240287 -19.325132838175215
-29.319037892896272 -8.413823893052866 -19.263373747720404
-29.35625115812479 -8.420262000592077 -19.189130744064045
-29.38097908118261 -8.426075296430874 -19.139454147627973
-29.40327263494741 -8.433005584778918 -19.0945524672195
-29.442814592268785 -8.457644934950363 -19.016775354905292
-29.464977729917734 -8.472122323747376 -18.97421445945372
-29.491934652087114 -8.490995669790918 -18.921859579877374
-29.527673064645516 -8.50257200786009 -18.843998786895423
-29.553694592778157 -8.509638479445263 -18.788649842444325
-29.583668510650867 -8.509953347060888 -18.721634377314565
-29.613957179710365 -8.517930216522865 -18.649309096635925
-29.6433879364701 -8.537097480219577 -18.58693125713279
-29.67414659263352 -8.555555053543676 -18.520491148548334
-29.710014274754627 -8.572048554486637 -18.43757903221719
-29.73450970789737 -8.58298450045875 -18.383458128696645
-29.759166276866026 -8.594991133071574 -18.326570129174
-29.78783982201217 -8.608085160305352 -18.257319562318187
-29.805287214132218 -8.614732827492892 -18.215353829007395
-29.822397540310376 -8.621587057881401 -18.173522209359692
-29.835834199563745 -8.62697125211345 -18.14066583552948
-29.856584688476836 -8.634915008212834 -18.090682813701793
-29.881200539695172 -8.645446970694543 -18.02913794503721
-29.907477574975353 -8.655967740954894 -17.960404961439924
-29.928749952840178 -8.660118339191813 -17.907502579609396
-29.951681437505634 -8.66649085335886 -17.846605313441877
-29.97830884630288 -8.674919329551999 -17.773963709593836
-29.996574095761854 -8.682598746889997 -17.72731033233246
-30.02633129024165 -8.70808717333827 -17.65702392479882
-30.05271349224361 -8.730816960629552 -17.594574948397174
-30.078547428072298 -8.755945397350212 -17.53194568329869
-30.12031467087793 -8.801213072544607 -17.432834628176973
-30.15258145919373 -8.794053435043688 -17.336165631718053
-30.174854130352244 -8.786089595187342 -17.267471105909305
-30.20452126177239 -8.773877674991999 -17.176864190537437
-30.230852591008826 -8.786006605669085 -17.102671336508884
-30.268874245617894 -8.806127000517384 -16.999713724256182
-30.29832125703512 -8.818172556126811 -16.916276591818416
-30.31656592603732 -8.824453790799447 -16.863754543869547
-30.335564608219027 -8.839526712021287 -16.81053829769036
-30.365521968981245 -8.873573231392777 -16.72934970428048
-30.387200128167052 -8.896866932537142 -16.666962986429063
-30.406010079538746 -8.922243904986647 -16.613211673120485
-30.428003990407333 -8.950578940107984 -16.547588804023075
-30.443209597698196 -8.975756595179677 -16.50181705435832
-30.464983569629066 -9.022520759878915 -16.43550080191612
-30.484283132783208 -9.056116053185983 -16.37138734489922
-30.502195990399077 -9.085448450493189 -16.31207941031589
-30.518907625199063 -9.118996292688456 -16.24720489555515
-30.53571504817527 -9.154092751004166 -16.181833778565743
-30.55310291888093 -9.204177883353857 -16.10470155850329
-30.56468461517921 -9.242790434093124 -16.0480878147475
-30.576263471413633 -9.282465902717393 -15.98548906951985
-30.5898289675603 -9.311543341720087 -15.896099669477117
-30.598126151353796 -9.317645461352614 -15.83550333873323
-30.605504304265843 -9.3286844214917 -15.766023790226313
-30.609286831086152 -9.36710635027061 -15.688509337953509
-30.611054361446342 -9.386576530060747 -15.627825102051382
-30.61041496918493 -9.418124443464345 -15.538967610852247
-30.601006731854895 -9.4443949173476 -15.418088947501705
-30.59041252335549 -9.493901854399759 -15.332943889656413
-30.56960049807688 -9.535022022367624 -15.23114035802162
-30.55386882574841 -9.538530398891803 -15.158026389317719
-30.527506711032096 -9.536195075115545 -15.053283353762907
-30.49711606901345 -9.537282173639083 -14.95555636151935
-30.47133062270464 -9.53886581059735 -14.885097093683221
-30.44905702383744 -9.544405177882219 -14.832913717208394
-30.41817410542249 -9.551946988683667 -14.76629665338062
-30.387434508320702 -9.549676883303325 -14.699649914199124
-30.358295954171986 -9.546406989950105 -14.640642590885355
-30.328089953522188 -9.542456172067247 -14.58184943835806
-30.296386589061843 -9.537402613526387 -14.523729376052032
-30.265313287914605 -9.52802982479821 -14.465214945528729
-30.23032630487799 -9.513673466709365 -14.40135251205683
-30.202871128706327 -9.495363542414447 -14.347825781261886
-30.1658236260753 -9.47309995672632 -14.277946279344665
-30.133214788870802 -9.473504636545806 -14.231408662227576
-30.09469716645739 -9.476396015779018 -14.177695066804082
-30.059798927325673 -9.474272557818448 -14.132208749821547
-30.028725244250126 -9.468553206655317 -14.091265612542086
-29.978580792777556 -9.444361482094303 -14.021838935068953
-29.940348574885178 -9.439061625695423 -13.979020355806423
-29.905658456202396 -9.43305630758183 -13.942381794362806
-29.843771291445243 -9.415854143571853 -13.87661831466694
-29.78146550951814 -9.414803367144424 -13.820684765510265
-29.71712187600586 -9.406322868749031 -13.764859686226139
-29.643008964111083 -9.402802213848977 -13.704872367494406
-29.57587407443655 -9.404154861724688 -13.655414001292932
-29.503309683688002 -9.405822347123275 -13.602585957481299
-29.42869778309618 -9.407466690830303 -13.551334614322338
-29.37368880297789 -9.399035041812112 -13.509341332611747
-29.320450615710982 -9.391928264354704 -13.469485412430942
-29.26014129180667 -9.374757973844266 -13.420566867890017
-29.206619018229404 -9.358322938237466 -13.37701241216556
-29.14447997880374 -9.347104906782802 -13.328729967177294
-29.10324541041249 -9.343594338946756 -13.298346106830238
-29.048938902273004 -9.322037826169181 -13.263583482852914
-29.00105104608893 -9.297511047258743 -13.214360380149671
-28.9427237496094 -9.275387149729607 -13.156474592731026
-28.842882637096228 -9.25535602044979 -13.070188346979279
-28.765297945694456 -9.259972376710005 -13.010484703299955
-28.72641205761196 -9.260794432775443 -12.979029710947565
-28.677960887255388 -9.261775577668393 -12.938842272397356
-28.629245649668455 -9.264845886016875 -12.898811874402647
-28.58739331329977 -9.267448706978419 -12.865384445028507
-28.523015716636344 -9.285385221066603 -12.81680300397647
-28.467012429943807 -9.299841318624006 -12.773910741389834
-28.407020715745595 -9.313344258825476 -12.726869869216944
-28.353563152158976 -9.324643863289717 -12.684762032516772
-28.306957836138075 -9.331516222251926 -12.646344294451222
-28.266841485126374 -9.336661098822132 -12.613265565563289
-28.20593469592264 -9.34509241649863 -12.564351491124718
-28.158329226025593 -9.345987413494614 -12.523250741549127
-28.091177198340525 -9.350135704120937 -12.468403299749198
-28.04492269912182 -9.360809359763705 -12.43520274661823
-28.001588720447437 -9.372809314210365 -12.405805971794727
-27.935975995559733 -9.388470233156262 -12.361368177908194
-27.871926843299196 -9.400513477004948 -12.318029060747575
-27.82410251217113 -9.408227903478185 -12.286895715220915
-27.7508634859397 -9.412447299626793 -12.23800642487642
-27.70809787174091 -9.417037849266395 -12.211360559572825
-27.64796196197266 -9.422943168245974 -12.175713941578596
-27.58441487632117 -9.425951100046676 -12.138909479358436
-27.51435204450027 -9.449113372750281 -12.108185124771367
-27.44187094651961 -9.457107331776426 -12.07232332472166
-27.385661931580124 -9.468171794387661 -12.049402131232863
-27.31152227530509 -9.485955337541407 -12.022464007341085
-27.248707332114403 -9.50699040256461 -12.003880298674224
-27.16801815373272 -9.52640716479939 -11.980105593342358
-27.106329213815606 -9.534214377551539 -11.959419081104159
-27.032054541388675 -9.532007677640918 -11.931816641318672
-26.956519763222676 -9.543714748681655 -11.910260111645297
-26.904303338321405 -9.576373999191034 -11.905563190100285
-26.85129437008602 -9.606095902103505 -11.900007236647028
-26.796110076595536 -9.619969906709835 -11.88870602799993
-26.723656833561908 -9.630589290380565 -11.87058641016365
-26.654353199187273 -9.645972636607455 -11.856386048754231
-26.60099497468444 -9.660591202088668 -11.846765287454943
-26.540962279006035 -9.677819365220575 -11.837095179270065
-26.449197822109177 -9.715069633669101 -11.827688608088287
-26.399957451963363 -9.739728043823735 -11.824138400890078
-26.333909184102453 -9.778631881525568 -11.823875897720306
-26.283837240611355 -9.803956535353803 -11.821907704034786
-26.224497922565522 -9.829930485448466 -11.81853514731294
-26.14339993687184 -9.867962628671721 -11.816108086929333
-26.080303459349835 -9.880081703622208 -11.80648202365812
-26.02483442447809 -9.90080033077935 -11.803946061967466
-25.95891451759615 -9.923975208570203 -11.800314970867767
-25.892418805145283 -9.945660752708742 -11.796557074333585
-25.83812719234294 -9.964671471664028 -11.794472238022294
-25.7610515378928 -10.00171255082158 -11.796072990839896
-25.704703022837904 -10.029937099037749 -11.7983788462492
-25.631096188896198 -10.067488548180021 -11.802236868026895
-25.556891959297367 -10.102774374321678 -11.805749731746705
-25.461397439904573 -10.142287096635764 -11.809545028991913
-25.37166009989016 -10.16813557563317 -11.809564047234229
-25.294126490317126 -10.190201631225946 -11.810614670877037
-25.235609906282622 -10.210271643927033 -11.813267421369854
-25.168210602696025 -10.233009506558368 -11.816924649550145
-25.10041808247319 -10.255307187591958 -11.82074341524159
-25.032223965767113 -10.27607841205305 -11.825494981970882
-24.96459537275074 -10.297535801754167 -11.831133959238624
-24.896645497740806 -10.318659311218552 -11.837453409801089
-24.83897490703648 -10.332383869902207 -11.84082118850652
-24.758770721324083 -10.349077572028277 -11.846456557782489
-24.675541778386386 -10.36933006769838 -11.85430978744279
-24.62219189783161 -10.38756182549666 -11.861714307380169
-24.561628565383387 -10.407766476081266 -11.871815762846857
-24.504466891887937 -10.422732767257665 -11.879075013639877
-24.44619272786796 -10.43787588217054 -11.887164754869982
-24.386544364540946 -10.45276196974732 -11.895501245487274
-24.32731057127907 -10.468597857794377 -11.904218902092552
-24.267461691594622 -10.487113807095058 -11.913899861824127
-24.21204797640507 -10.50439801956618 -11.923507774357702
-24.146262923406855 -10.527947385437374 -11.936749900336224
-24.093984937042546 -10.548766976586391 -11.947983815204704
-24.025085536289765 -10.595388441412187 -11.972774304713713
-23.96478570519941 -10.644814354886636 -11.998496952204365
-23.885049369865637 -10.680602751077489 -12.019684212585728
-23.81718375667109 -10.707035702903676 -12.036204521244525
-23.755372545335813 -10.729899816623982 -12.051216405588391
-23.6865414679467 -10.7756061883388 -12.07788643031744
-23.599900054848636 -10.808145036499809 -12.100017555819438
-23.54052923682487 -10.849280894815495 -12.124967907808664
-23.490902631500287 -10.887874883763047 -12.147529281251831
-23.412489763812577 -10.951568679222202 -12.18637775479215
-23.359625178856664 -10.996346881606724 -12.213710084258569
-23.30639982452037 -11.04385950726932 -12.242248219191001
-23.25101361562042 -11.088363245812294 -12.271367011967925
-23.1968473261545 -11.131607057984073 -12.29987988645541
-23.14311416015454 -11.17450678466714 -12.328331803314043
-23.088773125975585 -11.217166690601717 -12.357836883691633
-23.017471546767297 -11.272412803962357 -12.397461054322314
-22.946515844439933 -11.327401042958023 -12.43726824321772
-22.89359311282939 -11.367893215619324 -12.46754681922859
-22.82457392715976 -11.42245769760929 -12.509457036164907
-22.779460670390186 -11.458625380577994 -12.537998813429116
-22.73945970072922 -11.488930774980245 -12.563175224109845
-22.68859467337338 -11.527643730137997 -12.595068625948887
-22.637597013703353 -11.563810272425972 -12.627417195005304
-22.586481958787985 -11.598617555163555 -12.659833355991502
-22.536011599664057 -11.632853755934745 -12.692255357415132
-22.486171999620428 -11.66644707590646 -12.725211414012822
-22.439106172810842 -11.698212515782702 -12.757024638280143
-22.39514998973201 -11.726903253795466 -12.78820114692531
-22.336802994556933 -11.768861256490796 -12.832713530648308
-22.29809725385056 -11.798319111751853 -12.864418722731806
-22.25444240193252 -11.831022704000864 -12.900936223598876
-22.210163944030036 -11.859137864967842 -12.935103113183132
-22.172610187291173 -11.88377035854194 -12.967132929755389
-22.11643801695757 -11.912927773253257 -13.011795418847036
-22.067695244523645 -11.93853514218321 -13.053811689009652
-22.023666961168466 -11.96372491406865 -13.094167022639741
-21.954502785740623 -12.00150359330129 -13.158681701408586
-21.87463133080074 -12.038462793195931 -13.234392929471191
-21.815893600636592 -12.056218217528489 -13.285684849372768
-21.766310558209366 -12.088895206338494 -13.348262766384927
-21.706709603558984 -12.124021386478677 -13.42308759163001
-21.670743130729672 -12.138135482522017 -13.463649465311175
-21.62526816001637 -12.154736821259913 -13.515713072038633
-21.595121106298787 -12.18172788484699 -13.567528778763077
-21.572108789882012 -12.204413647371728 -13.610302501657355
-21.52622557785504 -12.222614483080816 -13.670869905589129
-21.48129523406395 -12.240115318132744 -13.733174845317896
-21.45401168029807 -12.252598921537704 -13.774496319725207
-21.423836951493858 -12.271313104533201 -13.826797527570768
-21.389329044311108 -12.290891482417496 -13.88657891645041
-21.360477033359977 -12.309075463604357 -13.941516694646133
-21.324819847271343 -12.328338931440683 -14.007642289030418
-21.295619941884418 -12.33508572824067 -14.052067510768122
-21.261453765474794 -12.349079704878223 -14.114190404812078
-21.22684763019162 -12.36369073545799 -14.18013770949452
-21.201816256019782 -12.376085683027375 -14.233549002505411
-21.17319107475707 -12.389259437795058 -14.293952498554436
-21.14675019479179 -12.403489536456178 -14.355577004012133
-21.126998149901475 -12.41579730052042 -14.405513352155797
-21.08195799230344 -12.437380415806226 -14.51506889073302
-21.035921140745973 -12.448228990249142 -14.618237800156852
-21.01356742847086 -12.453496489427431 -14.668331376869371
-20.97476939976557 -12.463523719180099 -14.764140445277945
-20.952708624394752 -12.472679439072987 -14.828512229733596
-20.931057276822784 -12.483424024033994 -14.89790831001022
-20.916713659844756 -12.492957304031188 -14.950660653012587
-20.893781189458657 -12.505756394661764 -15.030651875413866
-20.881806460474618 -12.517945787225614 -15.092385858752568
-20.869057327224628 -12.532396959652115 -15.159962972493055
-20.857625232952863 -12.547194897888984 -15.227878301736514
-20.840471014688415 -12.561395294496354 -15.316220020629412
-20.805200676008916 -12.55742672945909 -15.41624607494705
-20.78242052138946 -12.557610476613384 -15.497351678344444
-20.765311037353918 -12.558117607667464 -15.563067394515055
-20.746398865238827 -12.556089265011037 -15.628328924111273
-20.71951419965944 -12.553142402679809 -15.741873301920503
-20.709558054573094 -12.558834242827745 -15.82372798495959
-20.698980690384413 -12.561990601031338 -15.926187263389991
-20.68490919949822 -12.553551625995961 -15.998676138109431
-20.676714711151373 -12.545637194291249 -16.049590558982846
-20.674690259773342 -12.552173128567201 -16.137244823124558
-20.672503032489935 -12.552656560488233 -16.208527406196566
-20.66210387395624 -12.540818940837154 -16.278000507823695
-20.650415336890855 -12.525296200459161 -16.375315429224134
-20.641799857719747 -12.510911225086089 -16.467866026265156
-20.63445714999715 -12.497765558991427 -16.539908633648114
-20.629651661495537 -12.485441411448393 -16.62473087854545
-20.6281713609248 -12.478020467605258 -16.68759491105857
-20.626508087871265 -12.468304687143874 -16.763127050528137
-20.625353105870772 -12.458771590346723 -16.836924992682775
-20.625437173271607 -12.451959824912558 -16.88734951156241
-20.62553258926772 -12.44471149185869 -16.937858696206163
-20.62518626736979 -12.437040876762358 -16.989894457718282
-20.624575252411272 -12.425803734376657 -17.05807120350393
-20.615549145514674 -12.400197326135595 -17.133791019802853
-20.606510738407078 -12.375352712593159 -17.199839124390518
-20.59922878826704 -12.349866781964215 -17.275943726600687
-20.596008227582928 -12.328785600436603 -17.357021645674312
-20.605490563880878 -12.328394669005379 -17.4250347431312
-20.61147265316661 -12.319711963426101 -17.504528734244662
-20.619715602964416 -12.306501812689744 -17.60884589352154
-20.630555321828687 -12.309508728195409 -17.670456646998957
-20.628487974875902 -12.29283095232249 -17.72424925389308
-20.636018371221855 -12.29087295947273 -17.782381448567183
-20.64966408288626 -12.297392071767192 -17.836329557687826
-20.651763729993743 -12.28406658140016 -17.903994158506734
-20.653606732033985 -12.265571309547495 -17.98149457686945
-20.65202634914094 -12.24607168487589 -18.04041555656828
-20.668495956878335 -12.253657634623076 -18.117521233312505
-20.673185386287994 -12.23020542899243 -18.219484691125515
-20.670404511824366 -12.209653301523964 -18.279579666265615
-20.667655401253118 -12.169381794856447 -18.403308844529978
-20.667381171580566 -12.14866639055488 -18.473495153615385
-20.666951722711303 -12.131745972505314 -18.529819277545652
-20.665010563317793 -12.105369878884721 -18.60833352372517
-20.66049846366723 -12.071252084547236 -18.709077334698634
-20.649685320368583 -12.02208432778327 -18.827584701966536
-20.64698457238261 -12.002520032072344 -18.881296959004498
-20.644711728342855 -11.984876578596461 -18.932566529861063
-20.642019448424705 -11.956859897781701 -18.998473071015344
-20.640604360161337 -11.93178080787864 -19.059236536298943
-20.643359844516812 -11.912692150889756 -19.114160007930476
-20.64760854001425 -11.896193046712744 -19.163944685196295
-20.656994074272173 -11.880021031389214 -19.219131421109353
-20.68043512494248 -11.87669203189068 -19.278636053078372
-20.698820973512543 -11.855848541561574 -19.341147392428187
-20.733534050902506 -11.818274210601823 -19.421338307891634
-20.74946040587165 -11.789709060426217 -19.460402209672502
-20.773349906204928 -11.741334604066589 -19.519977127593513
-20.798480476235255 -11.695537856843751 -19.58570242421725
-20.814380048143658 -11.657951137681225 -19.638549400574437
