323
5.372567390698144 1.2474944558481318 18.605009101394792
5.335272018710276 1.3269647795392978 18.642380243508256
5.307556242020107 1.3766372264915536 18.66469077661584
5.257964443121599 1.4548652019021842 18.70721801305389
5.225216067376856 1.4933778362266232 18.717916091565844
5.1790114577579 1.5467104883226237 18.730879456035073
5.144244227667871 1.5808273354793099 18.745186409231493
5.105649978283505 1.6143218431038524 18.766528092226952
5.047635732787549 1.6614936997594687 18.796635491290814
4.9790774230404615 1.7131391312176043 18.828961267385694
4.939241136436474 1.741508317992468 18.85122755601086
4.8925286964542085 1.7747670902707289 18.8787499676098
4.846881044541423 1.8051423679562437 18.90692862226596
4.783811424300689 1.8462154378377194 18.937147375145774
4.733674085768104 1.8779737869071575 18.960012361979974
4.669171941519684 1.9177738967784532 18.983672739756102
4.58072597870502 1.9671600896457737 19.021134044269957
4.53576573022935 1.9900897686190464 19.040149168971013
4.458748071388582 2.0278345487717684 19.074203476449576
4.394640619279805 2.0547964237856005 19.105189672950893
4.3477322427987435 2.0697254926779993 19.13442426384131
4.287882588670948 2.0868799061253047 19.16869683420885
4.226944262610422 2.102854143252141 19.19979689128014
4.166300109481526 2.1192565919840303 19.22006904108333
4.09896209541056 2.1384093889225313 19.23736344699755
4.005718022144313 2.1614774850144785 19.26321702976141
3.943916376991385 2.1747534813655753 19.281270158784817
3.8816046699441995 2.1863575883022777 19.30006057498209
3.794312357406501 2.2005108141770475 19.32637318656487
3.69262049976041 2.2084643137058895 19.366210928787844
3.622364417536303 2.2110513195237247 19.39601042856433
3.548818503132647 2.208180968713863 19.42995445978247
3.4645260739461183 2.2036676773927284 19.464659932880565
3.400057868375464 2.1990163937396914 19.48891770293173
3.3463852373665195 2.1888767883411897 19.515406104252524
3.2606469109343688 2.1810019439205903 19.53318670634077
3.1935328527578375 2.1703848317596575 19.54811107325721
3.097953905384902 2.129733209762444 19.60686211692844
3.0457647992044996 2.1010649024391115 19.64319239229392
3.0011491402373376 2.0748172366374598 19.6749851177404
2.9557051325059818 2.0302816272833506 19.72560413803581
2.9220595227885897 1.994650647195256 19.76506660416485
2.8848487033484402 1.947786729271749 19.81620493474539
2.850161682364875 1.9182738571152043 19.84006326226036
2.805272166839075 1.882056245047123 19.86619490268126
2.7589509728442114 1.8429842893068948 19.89274548555765
2.7023067597630193 1.7951213099581893 19.922401312242734
2.6513359082924635 1.7650667636208062 19.93049255628044
2.594668280282495 1.7317684145732133 19.937689234617523
2.5372884304225187 1.6903026490507247 19.953099255522716
2.488749015677491 1.6559581851469436 19.96454915968218
2.4187093731968594 1.6139305249607312 19.969701553869243
2.350295982576531 1.5745963966684013 19.971328149069933
2.284317854954922 1.5418995331332384 19.967325125941805
2.2179114149328014 1.509784344407953 19.9617004771297
2.1448458238542467 1.446037550705443 19.986681446860413
2.0939099973164885 1.3997416994675143 20.00663233295905
2.0497685725959944 1.349633462565469 20.03521633563575
2.003053515646871 1.3013744622611836 20.060632977666664
1.9554532427813833 1.2523850897560256 20.086561188071816
1.9147467865032195 1.2030012075829792 20.11698040715656
1.8725398593547902 1.154005705448418 20.147529100236348
1.8281591598055607 1.1067767420081664 20.174571081139334
1.7901965852399706 1.068323641221037 20.19619856380041
1.738595035734717 1.0244354792487163 20.216229862415094
1.6865217462181321 0.9862966131264459 20.229209301367018
1.6170628577713946 0.9348039706023292 20.247449901235555
1.554329413694092 0.8872408395997993 20.264671180261455
1.501228428683365 0.8512276238380192 20.274710892449004
1.4483836994284673 0.8134025499628401 20.28644459782991
1.3805541889427517 0.7779180653223063 20.284641338709495
1.3218664554234532 0.7452973169326915 20.284573123236772
1.2523693755973713 0.7114170482951319 20.27756870578532
1.1872993901477122 0.6802221135418693 20.270235882663272
1.1063688790580346 0.6300398576156065 20.275292318737982
1.039558746328297 0.5820587702358595 20.288153037773057
0.9934919084374987 0.5474829720280718 20.29876094373764
0.937157413349945 0.5062155365062169 20.309746011249082
0.8799817877761176 0.46531397004062347 20.318802810744938
0.8226082558049694 0.4250240097641247 20.326572846256052
0.7695530668635953 0.3897455642463181 20.330770609906274
0.7090211135499622 0.34520665528965555 20.338765870883655
0.6568285248360368 0.3086983924567872 20.342663681192963
0.59539581330105 0.2715535185701836 20.336936867026058
0.543363400251645 0.24045062990293875 20.329805724792237
0.4842340218422567 0.20365850410613628 20.322672382667573
0.4311858801876167 0.1693501369624535 20.3157100822079
0.3716614345233231 0.13398302216441005 20.30149432241225
0.31866478110011576 0.1054332686958781 20.279806258525536
0.2319347657823405 0.06379956731383096 20.23049365845809
0.1491491451019562 0.032844120616768 20.159187402851472
0.10609966453399267 0.014542460623239162 20.129020416969016
0.0649542846362201 -0.0040460722484354505 20.09629015625085
0.026634800110959755 -0.021614591403276595 20.065526108608136
-0.029379750798848026 -0.05120887513184291 20.025155923474983
-0.11079497481484069 -0.09741572949000554 19.96826588592504
-0.15669743167610406 -0.13250471002438413 19.947725070881134
-0.20869384134692437 -0.1766148151671474 19.929714198788016
-0.2599292212415323 -0.220608569020055 19.91118622664307
-0.3053830512198963 -0.25974657755607167 19.891827167144577
-0.359081629136468 -0.3028865163048109 19.862855853157033
-0.4081551391623246 -0.33298994049018793 19.815834235970375
-0.4668174530297118 -0.3797397141002805 19.779873757873663
-0.5060389414660817 -0.4240876905852038 19.77090081867013
-0.5744778232188605 -0.49447399907144307 19.742199607078465
-0.6156234455584708 -0.5387860760743393 19.726082693639466
-0.6572928391854931 -0.5826299583480155 19.70442871779147
-0.6923775915131571 -0.622784880777147 19.689673653882814
-0.7282863483288939 -0.6687754554517951 19.680257459601318
-0.7710514387182843 -0.7266466569098902 19.670668528308237
-0.8031086188120047 -0.7663024178164108 19.65319774738254
-0.838590490299921 -0.8159177865695697 19.63610768060827
-0.8799721525287945 -0.8847944474815983 19.625272936700807
-0.9294614889351465 -0.9643598058048366 19.554634235708495
-0.9691987294655937 -1.0639523144260399 19.534546989249463
-0.9868806152231655 -1.1197031967766375 19.529763237857203
-1.0085921753732152 -1.195110199501261 19.537027511498653
-1.0346446868462404 -1.2911999637456666 19.522399839209935
-1.0566247800284052 -1.3708872726810886 19.49157192501433
-1.0933402554779392 -1.4881809395553138 19.415967770424004
-1.106910876584089 -1.5235057590697187 19.37325936409169
-1.1229328089424677 -1.5606453436116916 19.322268014760127
-1.134780761211435 -1.584381071721484 19.278582945649397
-1.15412779793008 -1.6247657396498965 19.216333149410715
-1.1702130138903315 -1.6243234218419853 19.089468167822254
-1.1883918183261732 -1.6475629835464392 19.010211122827847
-1.209154198447656 -1.6720239491157733 18.914900286460586
-1.2346742226305762 -1.715806350042381 18.839956025604028
-1.2586967175184642 -1.75929914144784 18.771188758718363
-1.275531205457118 -1.7706416501145825 18.6857162747354
-1.2917671354494586 -1.7866723921178544 18.600693913549804
-1.290159375655519 -1.7676297455381529 18.551992079311272
-1.2790218219476108 -1.7254232040578779 18.46801071246304
-1.2789128183778027 -1.7017272965030226 18.40543230845236
-1.276611807499556 -1.6799240158558963 18.341016111361363
-1.2769875146984575 -1.665203071627642 18.260107080839976
-1.2763089433099672 -1.6442277295502152 18.164210705474755
-1.2742794211149533 -1.6291306601894866 18.107795477107427
-1.2582472227351793 -1.5814591250126795 18.02940440328549
-1.2458878869545325 -1.5420324532305743 17.936642159853747
-1.237703446051385 -1.5172898905352423 17.861948831912855
-1.2356015663840034 -1.510559927838146 17.77910094433726
-1.2344517101553283 -1.5084491526516541 17.702870094455548
-1.2432668870890093 -1.5345554231631957 17.62244788280657
-1.2484646608205592 -1.5637837669970307 17.522552000585904
-1.2511159526019424 -1.5848322683769198 17.46568967803249
-1.2553270717534237 -1.6164187143274158 17.40385975986716
-1.2560191089499944 -1.6396290932087694 17.35270666508759
-1.2512511747007957 -1.6853102940732971 17.246876104167416
-1.2463112096045856 -1.7095751186802253 17.19276496311959
-1.2333511667652763 -1.7332898103643264 17.119259090040764
-1.2173918397042405 -1.7555964617653146 17.053728094957997
-1.1962182322484307 -1.7940579834741355 16.972744099444203
-1.1696987129340761 -1.8207452356451408 16.899753055236374
-1.1484787419274018 -1.844810618889933 16.847944216710975
-1.1280676808454007 -1.8631941048723317 16.80274737405736
-1.1023624298007646 -1.8783307345225349 16.7531084719113
-1.0464210713006374 -1.878824753131414 16.661055306167775
-1.010682601278956 -1.881827242150096 16.605270392508174
-0.9701791106115496 -1.8843936188481134 16.542739872935368
-0.9392908651314902 -1.8798555092371965 16.497758182976952
-0.8987955064283821 -1.8727773899690052 16.439107143291086
-0.8582485899490773 -1.8875204316622254 16.377833444128065
-0.8205220638118331 -1.9061167202391616 16.320669977808997
-0.7753237388835443 -1.9402758581594588 16.251460923651706
-0.7299052330924725 -1.9839265242390187 16.182334375508088
-0.670614598831373 -2.0564052258284744 16.092416389880132
-0.6147377723123326 -2.0933175072589445 16.013641535009473
-0.5779912843388835 -2.121312975883627 15.962742233298375
-0.53337155106512 -2.1612671303269124 15.901870984429245
-0.5021308382128615 -2.1814824987254666 15.86090300980987
-0.4607389130207631 -2.2060120109744026 15.808441571518955
-0.419008012823908 -2.2322061745120125 15.756361915051798
-0.3762663723183546 -2.258591057543948 15.70493762146286
-0.332403206396219 -2.284754417716001 15.653610063306882
-0.28563378709763265 -2.311456910867668 15.600510207200358
-0.23999798243748272 -2.328468999531705 15.55041635111083
-0.19789297944569162 -2.3422093477902495 15.505841934786314
-0.14312991246116846 -2.36847504195117 15.450550980851872
-0.09473827428337644 -2.3922347164635305 15.404124617053181
-0.046139530271298135 -2.4160741140049176 15.358860759501301
0.002319214410071435 -2.443026276006851 15.316827074348613
0.05068545422203696 -2.4720932161913285 15.277869099648214
0.10313462751768654 -2.5026723360587027 15.23811535027911
0.15129167841220736 -2.5227682237129336 15.20214747055013
0.2034162389447176 -2.5382975800978405 15.168028413756232
0.2581476802765992 -2.553740471540792 15.133518386562443
0.3130263200611436 -2.5694502624814675 15.101398091357712
0.3703304114845518 -2.586115335341058 15.070146535383657
0.42944021980808866 -2.6026611528118915 15.040734903068138
0.5093890989004461 -2.62444716152585 15.003525987513196
0.5671762955861888 -2.647031441139308 14.980795928991448
0.6653502913366958 -2.686217081514937 14.947368544801613
0.7115018331066261 -2.7016318277906506 14.931389607501082
0.7525480874305015 -2.711926314687488 14.917305908235107
0.7816983356181626 -2.7185635140774704 14.907982268737857
0.812374048957389 -2.7255359422263816 14.898182919588777
0.9070643576741664 -2.736224583558479 14.868162282311797
0.9887784169736347 -2.74610932241146 14.845299023483538
1.0716192298897549 -2.7665219465275737 14.827221112888989
1.159638598727232 -2.7930941288164925 14.811556585286361
1.219366521504695 -2.812360034232039 14.803696240564708
1.2976041967712066 -2.8375965298113526 14.793399820321874
1.3799815383058953 -2.8641983254565884 14.785430623040327
1.471954753258045 -2.905669505877926 14.783069117561691
1.562978781062848 -2.9488578342571605 14.783883090416477
1.614854796614979 -2.965880386126921 14.78241874698573
1.6776433736971526 -2.9996371387858396 14.788554616657972
1.7348110922495352 -3.0316262672671463 14.79451785031965
1.7862262020475854 -3.0712821126358456 14.804669755333475
1.8353345151603029 -3.1125628869007453 14.816524608184167
1.8836536938652606 -3.1500479830715022 14.82914338919484
1.9556615319781874 -3.202818403343128 14.851335368858479
2.048197275466985 -3.2447634894799373 14.875660979718422
2.1081457258653766 -3.2657602971276622 14.892138560499355
2.1676095114885325 -3.2867348640651874 14.910413229675036
2.21813935918254 -3.306039461895447 14.9276563195851
2.2808012387112098 -3.3374865259324284 14.955864067677417
2.3272857793377972 -3.361078956442862 14.977945971003088
2.398611496555214 -3.394375489012608 15.013201032427322
2.4549613752461084 -3.410325305604284 15.038618856849055
2.507974136503003 -3.4259631794613297 15.064568394743201
2.563714744688173 -3.4432245306279508 15.094049650709138
2.6660354910745743 -3.4580906380563294 15.144648750112061
2.7262871780661473 -3.4480010721682874 15.168337437333843
2.819564646130544 -3.4031179646606975 15.19480602575345
2.8784449596500328 -3.386613085189446 15.220083563681897
2.948271337597531 -3.381009610827951 15.257563284656687
3.0403963261022535 -3.3759395930067213 15.313273958336389
3.1010359539634966 -3.3696808487067784 15.350132052533116
3.160608048454098 -3.3638785339632187 15.388975925173245
3.2192546599878686 -3.3595628118937744 15.42933737016764
3.2770110466230116 -3.3565941741425016 15.47135575480285
3.333915407207902 -3.354631648078635 15.514902902603133
3.3799567170687905 -3.3542280886816362 15.551588448043049
3.432883787229559 -3.353609365701667 15.595779136626511
3.474321096887547 -3.3492383682112723 15.630422697876604
3.5227701535362876 -3.34308848830559 15.671579565382533
3.5783994962322123 -3.3356585834157313 15.719959057516817
3.620681813539718 -3.3309054659395256 15.758654667848674
3.6671299573575573 -3.325373999976807 15.802826370260814
3.735515794741406 -3.312871237794951 15.866568257854272
3.8013563857987642 -3.2966396304185923 15.929397307418466
3.8517345443049087 -3.280916416301339 15.97619016343409
3.901906000695677 -3.2617512581749293 16.022311699896573
3.9545071341902642 -3.2409967453469672 16.072262443935305
4.022568682977301 -3.208343141160515 16.13534295165549
4.086806957192156 -3.1741014925528335 16.195848640718385
4.133749346773859 -3.1478127119891917 16.24194929659289
4.192813189254251 -3.1143465616215775 16.299539270451497
4.226278523858024 -3.095921704675959 16.333539982132812
4.275927510727611 -3.068828285494214 16.385349266901322
4.315254347355147 -3.046871903003838 16.42729690794488
4.37112644389067 -3.0136510359405064 16.48376022745208
4.411237119549138 -2.990531195410381 16.53199487305292
4.484547675477595 -2.959672176887427 16.622418874208297
4.525821006702644 -2.946304661766431 16.676707668715704
4.576188086479686 -2.9310520957552573 16.7451879283819
4.606934876174513 -2.9122940776850346 16.782202051218352
4.671712988862025 -2.8686433428029376 16.86105188062415
4.717205645043645 -2.8190046196413783 16.910168732167346
4.748494893742112 -2.7818537893431063 16.943830531257625
4.779780062400324 -2.743614749202104 16.97795182603247
4.815252327652434 -2.698537254558915 17.017259709009615
4.841418828799714 -2.658863829542298 17.04459506852864
4.871291145772915 -2.6107553858514 17.07559146838662
4.901129711689009 -2.5623679045357726 17.107547152187667
4.9311245653650175 -2.5129957709160853 17.140022024773238
4.964407891691609 -2.458241476038744 17.175916724907534
4.989768077313416 -2.407503779303176 17.20275326568897
5.01783954330503 -2.350243062015967 17.231806596774042
5.040444898739507 -2.304211027930951 17.25550824809328
5.0735162134268155 -2.233009396795917 17.290154236829075
5.099856450463733 -2.1700901421061447 17.3162722736625
5.126362085615339 -2.1078998580539636 17.34373262945348
5.153551584151625 -2.047488598924538 17.373694650477454
5.18438969395369 -1.9790886505804495 17.408268677985024
5.2060400130659925 -1.9227442373969441 17.43088480107231
5.230467959970952 -1.8572203023422484 17.456453830103392
5.251610426529897 -1.7974323930726026 17.478339994607342
5.269631556934369 -1.7114030284025832 17.48952999401728
5.280344993846491 -1.6602341932713607 17.496760979266863
5.2904293879724715 -1.6093660655926776 17.50382972999152
5.299903646634002 -1.5580097395309767 17.509534797067207
5.31148081320446 -1.4900451587497785 17.516934622447447
5.331428416742405 -1.3709206702417194 17.530569062010954
5.344713452160688 -1.3034927499067517 17.54328211795536
5.36810435911805 -1.2043132009469306 17.569291101889682
5.385200706291538 -1.1448117558730488 17.591575313616648
5.402771463388719 -1.087321013418407 17.61501211565725
5.419672111398345 -1.031197314642756 17.63841194552849
5.434538338514036 -0.9829888357898646 17.659607822263816
5.457679113325922 -0.9058731722638735 17.694143588948798
5.490293470741847 -0.8256080800285148 17.74530171722871
5.517102448535439 -0.7617882984794391 17.79323824494997
5.541950613349021 -0.690641014899553 17.83874141398826
5.554527526413803 -0.6459548888026161 17.86571848181608
5.5651802007339555 -0.5999919011711268 17.888726052896484
5.574585779920454 -0.5544769774698795 17.911736059405854
5.585955577272911 -0.49408978748210286 17.942619416796504
5.59722225902747 -0.4338464137541447 17.97431708585841
5.606172071047 -0.38158005318586374 18.002174601222126
5.6144303213784585 -0.3276378781267444 18.030987358740905
5.622202147410528 -0.2535447212067572 18.066313941450886
5.627256423027218 -0.19431894561299767 18.094475209501727
5.632387151392615 -0.1213934213789547 18.129088890225486
5.632931356182304 -0.026056005711110775 18.162310472593212
5.630714532521884 0.07742719075963089 18.195927000538575
5.628654134901666 0.13863668802052187 18.215838370215916
5.625622899667338 0.19813924552308126 18.232578291201364
5.620618004514014 0.2588692915884159 18.24465149094365
5.614258435746942 0.31697849346103624 18.254986937386143
5.607219414939614 0.39217377763120753 18.26990105922838
5.601720989773597 0.4714808688170238 18.29223246190788
5.593808790090142 0.5579826776653416 18.31067415696732
5.584449509176226 0.6591001568397181 18.332073060802333
5.572843619127513 0.7618368839909615 18.36436386329491
5.559807941517661 0.8344614276198663 18.396004423405184
5.541007187779261 0.8998402398941328 18.424491552160763
5.507386950947943 0.9747011413249598 18.45711753135361
5.478105731421964 1.0276639312439202 18.481001548568265
5.4413944194372394 1.097475223536263 18.521131526452525
5.404184509258613 1.1769025943391056 18.565882394935617
