358
-6.5926186492047645 6.7978336266366295 17.075119270553383
-6.640114285646261 6.746111938143192 17.07523480818144
-6.691062736002282 6.675477328775791 17.064324095482736
-6.7493428502516615 6.5873860889252605 17.057085062078208
-6.793488628171016 6.512596921871989 17.053632467882654
-6.820575683739477 6.4627336447407 17.051805457064912
-6.865250636691929 6.374929729087275 17.04965434330165
-6.885582059327014 6.327518613316956 17.04451948831625
-6.920087767475154 6.226899225899161 17.020353007024138
-6.958481992488517 6.136346046628759 17.019034355021727
-6.98911636961205 6.063004677353039 17.02017887160764
-7.021258157152806 5.993795090135887 17.028728206837883
-7.05622411933658 5.9114900148800995 17.03317261963363
-7.091202301660671 5.82615892976853 17.038247882577025
-7.113231675057024 5.771790618918178 17.04111747009801
-7.1398772159157 5.6853098250565814 17.037279846682726
-7.155874059719217 5.634508335824345 17.035065118788562
-7.1723082068491255 5.570520999099124 17.026025573575748
-7.20097174046723 5.492549058251125 17.040769815650837
-7.235596618328605 5.388110915926196 17.057400742823905
-7.250016348731423 5.32255853600992 17.04725437258401
-7.267483968618993 5.2543645405619515 17.047675880256723
-7.299758836738635 5.1417948211238445 17.063374648287827
-7.3233911244038765 5.043788826737986 17.070193685591878
-7.339020266720375 4.9511955049631835 17.05386239601785
-7.350775508821851 4.880789573110659 17.042325831178307
-7.358624490531277 4.831876866641066 17.03489489136371
-7.370418573825164 4.750573739369742 17.01748590780676
-7.377185098435513 4.6914160152893984 16.998703719071727
-7.38580141635847 4.613381392274425 16.97108358562414
-7.395123752962725 4.548244205127971 16.96132925509666
-7.402803092435649 4.483869619298896 16.951276647055725
-7.409563048782546 4.400776477145827 16.92229062019808
-7.414869427710524 4.314254908016507 16.8796874164146
-7.415318431557921 4.247207631700375 16.824102731580943
-7.4166376421714215 4.2054212106623075 16.793771148440168
-7.426481120404889 4.111215612066175 16.761697686852212
-7.4258595904178915 4.063904720272048 16.72481576043771
-7.42557214608034 4.012235279562281 16.668573762320058
-7.432085273435604 3.907102032536476 16.616389058641218
-7.437894829869837 3.8051740613495992 16.5700047083615
-7.440714576228654 3.7523317613294562 16.548593670517626
-7.443883209058024 3.689320102801557 16.52285684100935
-7.446664085593946 3.6183981552178546 16.4917993289441
-7.4487766975952745 3.543387328243143 16.464827145498003
-7.450470370786077 3.484070122433674 16.44972094087596
-7.451171829409798 3.4171399880528854 16.430664853711555
-7.450907543395861 3.3386774439249223 16.411607255475193
-7.449850457015021 3.281490081177595 16.409123910451278
-7.447251994294719 3.211030928439592 16.408790152412514
-7.438868082863779 3.094475186571736 16.40173809217527
-7.43236944909731 3.0338561836294637 16.3919940677947
-7.424927057464275 2.9747427071547676 16.381834747603634
-7.415057521218339 2.911368893511918 16.376971690684222
-7.403033597781032 2.846617199436066 16.370236073505065
-7.3873948286733455 2.782040311960168 16.374753486027736
-7.359280186010471 2.675367754691921 16.380512220996287
-7.329487770996153 2.576552088404072 16.363748301040175
-7.312169686442509 2.5210120204555757 16.3483814864589
-7.294593606056514 2.4696756857134696 16.334774840411423
-7.270713943413428 2.4044131970967397 16.323302119762307
-7.237454760307957 2.317706597638926 16.304573997004457
-7.210140280974915 2.2568503485569025 16.303293817743764
-7.166967635341377 2.1677517559529074 16.303130966946846
-7.135766586392892 2.1010565815748965 16.28821533880486
-7.088376041078439 2.012129321695328 16.27739843766992
-7.0612147619527175 1.9535398069387686 16.241888524978283
-7.0337711970251995 1.89879405421857 16.20892838364771
-7.005087299423538 1.8446136452193242 16.17846303011003
-6.974538397153665 1.793491035950429 16.155509510688017
-6.932945880000288 1.7215210390578577 16.101210466665474
-6.892025997175354 1.6593357894089114 16.05847082803996
-6.8621133899725315 1.6172179793297066 16.027158220045937
-6.824564609581012 1.5652539068480735 15.980345591708033
-6.768577390706909 1.5002628430193694 15.93821853337283
-6.734192026696322 1.4621288982961043 15.900675541078435
-6.697240622449437 1.4241570754449866 15.865578134670141
-6.652669893318885 1.3781277268827916 15.793201652129525
-6.6154307308376765 1.3434730865950695 15.731810478585189
-6.5734372444163345 1.306492281275972 15.681392421995
-6.531525409949939 1.2713018593821854 15.629122913342695
-6.484837791045543 1.2358209103252273 15.546334662672951
-6.463595926774991 1.2223652724154255 15.495161916216993
-6.435670458679747 1.2072244353926316 15.421705116010681
-6.40589108565864 1.1884134855865887 15.368819996952531
-6.371402553310881 1.1661855511821193 15.317042002498901
-6.329025337934279 1.1503674878599714 15.207798322583713
-6.3033132295882375 1.1408048297105406 15.148573222533635
-6.264501716625471 1.1254966902696462 15.070799599080267
-6.211781979453708 1.0941376146122705 15.003768014270502
-6.171729084875208 1.068313208326946 14.960891800316158
-6.151351851587956 1.055549394058705 14.939153370214463
-6.109420528478276 1.0310020458397757 14.88745304599842
-6.060389307248849 1.0061571764426402 14.819173652950212
-6.019179356797444 0.9826458556388735 14.77419407098997
-5.982212395212295 0.9616796947283046 14.730706859683899
-5.9310740476947394 0.9329509326592282 14.673044794689407
-5.896467894948147 0.9166352323426719 14.629876127384765
-5.8531725267388595 0.9028579629425899 14.566794378832174
-5.801025385470771 0.879020561964744 14.506914750597257
-5.7446557343860025 0.8540135795626382 14.445002277040366
-5.697962357001604 0.8402390875188692 14.38730198714942
-5.635245296304886 0.8209326475340497 14.317747087195123
-5.595885349518502 0.8148193264076025 14.270062665240623
-5.557310267242974 0.8148968124270388 14.222060159613534
-5.511910879239421 0.8149288877722214 14.16707178448847
-5.478715821384856 0.8171188500559812 14.127174374521513
-5.444666578858268 0.8199692365695024 14.088116625405227
-5.4096288036296425 0.8230145271986402 14.048465941357033
-5.374440118358894 0.8271840926520897 14.009807014373237
-5.337871493664796 0.8325579727287151 13.96987258725451
-5.279390227519599 0.8411960421977291 13.909927600941366
-5.224108669965641 0.8458662081333357 13.859073350835224
-5.184609402908171 0.8484641928004424 13.825288769276977
-5.144543269957085 0.8515865838916217 13.79273377704693
-5.103544529090749 0.8552535828731622 13.759989887331148
-5.042093577142918 0.8546953079399893 13.717164836679213
-4.971502806244251 0.8561455369671205 13.66981445179347
-4.91270801312848 0.8564920431994849 13.634431117809818
-4.854073950433412 0.8591608828435724 13.598534328635033
-4.791370923784147 0.8643853026178265 13.560726647567243
-4.728628315639336 0.8718505081691734 13.52294719410152
-4.6834142701963675 0.8772559338610544 13.497175658800288
-4.575112898283669 0.863186429167573 13.464902875794493
-4.513476383877219 0.8550136031786948 13.450072281744344
-4.452605775150191 0.8492628549763153 13.435259193692467
-4.392825541014263 0.8478685934518653 13.419662205962108
-4.3336700702563995 0.8487424025732262 13.4044862922017
-4.2708576024524625 0.8458695638966554 13.394639086227023
-4.200803145565157 0.8399204099892057 13.390455241196758
-4.145267558467939 0.8385214913856947 13.387006849940192
-4.048904998892963 0.8392802388661516 13.384492503670252
-3.9755898632650557 0.8350523467039952 13.393654280147423
-3.912461056881487 0.8329187958860913 13.404068855660679
-3.8605108581006484 0.8280968812801082 13.419342194034371
-3.8048163746786083 0.8248424178351212 13.436224517219301
-3.7480090324027215 0.8279334055297485 13.451427145450722
-3.669577935668602 0.833933190434627 13.475960797949348
-3.583825293779824 0.8246404419363811 13.528442662864954
-3.5308428822801443 0.8204381234402629 13.56346045358
-3.4780501804976907 0.81863920718047 13.599288912221798
-3.4244100343398576 0.8192578291011425 13.63706524578998
-3.370183589504617 0.8220865974113194 13.676047251595605
-3.315109880344736 0.8260782394948645 13.716373800124636
-3.2498749627667105 0.8347230018076524 13.763353890293693
-3.1665550166542515 0.8365745393799353 13.844364370323223
-3.1186957503927295 0.8372336283822783 13.895614262308651
-3.0814431394329085 0.8384137991097076 13.936512479287519
-3.045908026898973 0.8400981782870318 13.976452420816432
-3.010036838176424 0.8421758681028406 14.017535002860328
-2.952734555602348 0.8479165994621252 14.081873351275537
-2.90365650739686 0.8482702842831886 14.149298936419367
-2.8702426169355992 0.8473171012201803 14.199223001563599
-2.8370984605601843 0.8426878380306084 14.258515123372238
-2.8007736874691633 0.8432526537795166 14.315742716717022
-2.769566910490942 0.8455424224102928 14.364780243125267
-2.7353004971785055 0.8531093849667146 14.410115178353845
-2.70108686022856 0.8620126002335191 14.455984176366655
-2.66020339456619 0.8728265744133064 14.512415290791271
-2.6198905236692176 0.8809003143806724 14.577226609614314
-2.5747621899626627 0.8909092182103395 14.651722834865566
-2.5392553631494583 0.9003622962665354 14.707765660013749
-2.5020225926678425 0.9141776246783009 14.761036610669535
-2.464422129569845 0.9285106456960988 14.81544653619017
-2.4233627025093303 0.9458055014789652 14.873242764134638
-2.3870465064048667 0.962224206968241 14.923852035708208
-2.3558547393126594 0.9726415538356277 14.975904095210879
-2.3150138859938747 0.9824765777016824 15.055478304344486
-2.2861330500269266 0.9884251226464793 15.114659996465146
-2.252635966475142 0.9951738712782456 15.18409415551502
-2.231001568373279 0.9991451882303111 15.22940844119358
-2.210207333718114 1.0023747544692887 15.276422563011693
-2.1893328203696663 1.005561574721898 15.323253337468799
-2.1678159203848475 1.0089034623976876 15.369539437281578
-2.119496579131258 1.0312061007871114 15.447416588370732
-2.0893525969739515 1.0404977734279834 15.50583849385955
-2.0498685920324338 1.0549964987749905 15.577589021683512
-2.0085012716223254 1.0698210070331424 15.653187935425965
-1.982464351455866 1.077675975667619 15.705434603151485
-1.945205129737206 1.0906315731932736 15.775980957411917
-1.917484620115951 1.0973483185761979 15.833633443699405
-1.8860965711632356 1.1050426948218084 15.89897836750638
-1.8430969074480275 1.1201422038862427 15.979041325912537
-1.8038955282894826 1.1337817557694339 16.0513915101663
-1.7524692686469674 1.1531277831104207 16.141359382208034
-1.7148036715568624 1.1677312074959023 16.205305383217258
-1.6827945291540845 1.1811304979631843 16.256836837937257
-1.6384389660919711 1.1969587014225873 16.331798522779792
-1.5915605394759105 1.1997916081780338 16.43329882050497
-1.5596290434489966 1.2084581815638702 16.488229027645602
-1.5217724495813147 1.2207359002601053 16.549204036732256
-1.4435684733009535 1.2508544480749875 16.654889730959738
-1.4138691367565368 1.2578524003924045 16.702764817760443
-1.3841789043737567 1.2643359360347068 16.750862322664325
-1.3234170617665222 1.2765652875323152 16.84861000915967
-1.2865207029478278 1.283242764444528 16.908603890496625
-1.2461211914097676 1.2896306169298086 16.97496991212591
-1.1917211894368762 1.3003213365710347 17.061878676626346
-1.1322623261926839 1.3168061371234583 17.147315937484056
-1.0945242738894119 1.3246386990459247 17.206533780241223
-1.0598117429380318 1.3328512903479572 17.26050571664082
-1.0165028843164667 1.3435510160863136 17.329060921733642
-0.9504273378026582 1.3631889185495993 17.43021760432145
-0.894959901939794 1.384001744591892 17.51553942845956
-0.8641412885060924 1.3954956468097166 17.568132195799794
-0.8168060257762342 1.4237825891460647 17.632248273595884
-0.7691863833050014 1.4564343630832737 17.699171530366606
-0.7223848031415327 1.4934965155181026 17.773108081447074
-0.6859359058952239 1.5329141118790857 17.8227335877722
-0.6575054824831161 1.5697063728945502 17.859648132432255
-0.6296925659836945 1.6092752606126342 17.906302764698946
-0.5794547920423647 1.698916640160354 17.986664560445128
-0.5473369401018444 1.780790459549561 18.00826849168876
-0.5252034891686423 1.8409464547686494 18.022892869466542
-0.511240006467244 1.8992611059315252 18.036448538121544
-0.49527920736151065 1.9722631969458713 18.053497348555645
-0.48629844812642986 2.023129991818209 18.07255164318711
-0.4807808953891244 2.0697899069401853 18.09468400059638
-0.4726257301607304 2.1566896638929727 18.13782264450943
-0.46548580497452763 2.243660714904177 18.14685954186642
-0.4599467233959178 2.338344003444468 18.160072852297443
-0.4570796408986526 2.404231716665638 18.171688810478692
-0.455608690168674 2.46266026276069 18.194063819298925
-0.4528119480862287 2.559689196562231 18.205160113850333
-0.45068729093689 2.6304921026732284 18.206293125103656
-0.44871610911948157 2.7188629796043937 18.208766605915056
-0.44612330475616835 2.805155801371612 18.195457691687317
-0.4448772449665679 2.8691432964365458 18.19082269725513
-0.4441886649245381 2.934482041726808 18.18633879964179
-0.44384061903403005 3.002689536389547 18.18316159091777
-0.44559607265752943 3.0658743919099525 18.190955399241282
-0.4483383146154214 3.136754257975592 18.199779109723107
-0.4509305590327246 3.2215692980071804 18.199420875924837
-0.45446370589634455 3.3057127975238982 18.19831982724281
-0.45400457078127454 3.3584410735709334 18.184726948726254
-0.4582208682137354 3.420236988422907 18.197744555503803
-0.46392172969576784 3.4903739993071756 18.20494642355443
-0.46400272652080377 3.567448196770096 18.18951150626084
-0.4648160793395806 3.6281466733940873 18.17727769111593
-0.4658246477298893 3.709020743751662 18.16521542305354
-0.46449070795178926 3.77607772493534 18.14870415724266
-0.46446034628274724 3.851251755140381 18.1338861334051
-0.47113241853347354 3.9250617795327054 18.135082922503276
-0.48147561297914354 4.000519278018364 18.143431218905935
-0.5059422417410095 4.075110614276547 18.182067124502336
-0.5308431949720571 4.160922688472641 18.21247448638657
-0.5486742059003222 4.227109948105499 18.228229184504883
-0.5611261574449462 4.315165935030388 18.228140814480355
-0.5815992626373254 4.401674054033317 18.237631294271317
-0.5898178551034094 4.46418413008576 18.231976482860357
-0.6086901523006509 4.5422178124952195 18.238083390379703
-0.6144610257066514 4.597204099346617 18.229193059722636
-0.6194863754656508 4.651204094302019 18.219437660333952
-0.635946303209344 4.725770780334378 18.219333223879033
-0.6483334345886651 4.805091180355282 18.210139306408166
-0.6735258200993726 4.911029205222864 18.210189138671236
-0.6809050006900446 4.964564659157987 18.200007150139623
-0.6916748180502594 5.013774544960323 18.19673295959706
-0.7187382802727091 5.093806657197772 18.20547331515387
-0.7341144457633026 5.153810196380573 18.20473663527025
-0.7680073931961866 5.243099849914016 18.215544045186117
-0.79338489216111 5.30516953151903 18.225890572263932
-0.8131266593846234 5.361996945808284 18.227123214584264
-0.8326357778730902 5.435770648273999 18.2168817609449
-0.8551171497712553 5.4979144273748455 18.21625696327053
-0.8785986377650108 5.559888507604836 18.2153437754494
-0.9023532300131873 5.620839218001925 18.213606285828167
-0.9312958738197912 5.695923250956719 18.210225216065243
-0.9731563565623809 5.778501574304651 18.214652504015785
-1.0074476159281534 5.8655203042440505 18.199559465577572
-1.0322682439654627 5.924228202985782 18.187971878626897
-1.0617989727063928 5.992968127385726 18.17264895817243
-1.0877446165337528 6.03672218686324 18.172055773622475
-1.1220419605945047 6.091563369142898 18.171121971089317
-1.15702860280676 6.149753456046998 18.167003004710708
-1.191912475380024 6.207796881007779 18.161115153060816
-1.2280136680251519 6.265637259431185 18.15441664897102
-1.264444461152137 6.322090484278144 18.151442914007234
-1.2990242005069996 6.382260090091547 18.135030794893517
-1.343703971957043 6.456500630166547 18.11474206832843
-1.376104695030111 6.498107590075552 18.11538997572799
-1.4314415632790225 6.570659317895565 18.118506486830054
-1.4682082285090137 6.622110899813171 18.104370757186192
-1.5077156117615593 6.678274503526607 18.088828240281174
-1.5468032911576688 6.730180227230257 18.070385982225616
-1.5873535756455253 6.781276877570317 18.053596241430576
-1.6288191951799353 6.830846691644391 18.033458852362187
-1.6704097134249842 6.87711298494442 18.01336677082582
-1.7212126561033063 6.929597225045704 17.991882886681385
-1.7608244520492495 6.9677021261648875 17.965432625261517
-1.8144635906873372 7.014694494422924 17.93963906241739
-1.8702491590948074 7.058057309783166 17.922278272525123
-1.9161588460348642 7.091943725233103 17.894020098524734
-2.002612513209086 7.143502090344693 17.846804729144214
-2.079875178565773 7.183568640047444 17.812881107006746
-2.1273890882588704 7.205595793071014 17.79392130778165
-2.179792581336084 7.227129422351622 17.770744571442798
-2.258566420680794 7.25734568595883 17.742301750643083
-2.3397601308711002 7.289371004406007 17.72967877914411
-2.387103017116788 7.3056094165192125 17.71801538862639
-2.4638133973516383 7.328307277068584 17.69366210605953
-2.520082177517407 7.343523846924214 17.67410591217791
-2.585586029299955 7.3625016035927064 17.66263840589953
-2.66092294885672 7.38376758231775 17.65159520325184
-2.71681358636187 7.399026033889598 17.642826259652946
-2.8060108464646887 7.417860926946739 17.62289627581321
-2.863755034592787 7.43066528532267 17.612680175733896
-2.9376106245633458 7.446562805901921 17.603127558352973
-3.0171580139556444 7.46569104739128 17.60662383785583
-3.1265707203136004 7.488246510360364 17.603355162688366
-3.20683986783637 7.503482181227229 17.600803777169105
-3.3091720256191333 7.51767254762162 17.581503104528284
-3.374515992684888 7.526825446745235 17.5717768408605
-3.450263969681575 7.536280819431777 17.56106609329108
-3.5094713845664463 7.544123498753818 17.55619950158991
-3.6304772766232882 7.558160699219675 17.546834506315896
-3.702104041576455 7.56352492901517 17.530250269376612
-3.763128573632057 7.567895241470284 17.51627622629194
-3.839129276028767 7.572346008757615 17.504938788142717
-3.9017790079409598 7.575289860725858 17.492379141943193
-3.976565206431381 7.576700449470316 17.480841364334875
-4.041642811286756 7.576701976673917 17.4663397700875
-4.119905345780099 7.574139907863829 17.446891803344723
-4.179892028486918 7.571760911740634 17.435888129166315
-4.248786975134124 7.5682210840934605 17.423748637165737
-4.332731091946398 7.562441554852475 17.40868581227145
-4.392494014114455 7.555569485726544 17.392482053332657
-4.422191592889266 7.552110801727441 17.385736968496982
-4.452440899743195 7.549798166993892 17.380850313840696
-4.487020070145302 7.545208743268374 17.374608024102816
-4.601036228422798 7.530013361129448 17.35281170891362
-4.670418594045902 7.521417354326902 17.345908304439945
-4.762212723000578 7.504464072876781 17.323942315552603
-4.818439047775824 7.493583334684702 17.311080430435915
-4.88641609092315 7.477317668785137 17.287491335868566
-4.963970366474358 7.4621187573414645 17.271508742986082
-5.0388322080809615 7.445036296882062 17.259162432861707
-5.122368211473296 7.430196898727495 17.253056835046834
-5.236554071187003 7.404412553630724 17.23781182741279
-5.3331643467262015 7.384321655066534 17.231200517955575
-5.423003302096964 7.365645543157438 17.226040804620922
-5.480065080104394 7.3520307856989895 17.22115966863861
-5.547628791193597 7.335858741141873 17.214799429801662
-5.5984720904096985 7.322769378167193 17.210121019797196
-5.685663216050173 7.299563193931412 17.20348694900511
-5.754548488407448 7.279881847431177 17.197429149165902
-5.820422816355169 7.259647306582696 17.191306978535426
-5.896974113114281 7.2299233893819075 17.174008413601015
-5.961662108934146 7.20484862907545 17.163661792860385
-6.01661093319105 7.182111597044679 17.154278055552965
-6.076858167438941 7.155198426867514 17.143718227607927
-6.156843517093716 7.117836276185605 17.133285914390463
-6.219318833659642 7.085645664083323 17.126001883495892
-6.273577944769331 7.053733078860848 17.115240974731
-6.32537224536315 7.0197394556209165 17.10445227595379
-6.388722357448001 6.979056562258787 17.09909747111391
-6.454123309664286 6.9237813488601265 17.0812032774204
-6.519802652731032 6.866150574110929 17.07391006236892
