437
3.8450035760394403 0.8144032358247728 -6.511308846697068
3.7662172867436734 0.8042516124646408 -6.519701180570106
3.7041019952780876 0.7918607837384879 -6.525647633457702
3.649425714012212 0.7762129827266258 -6.529650032542688
3.582380911273713 0.7771242068102795 -6.540813120793713
3.5114507899632574 0.7507358474145442 -6.543043326076736
3.4358825736663494 0.7420037970960986 -6.552960522470689
3.3633574795601433 0.7309977313584557 -6.562045098708038
3.2643365704460767 0.7192704374156402 -6.57724551175694
3.1852067388659457 0.7118904723939752 -6.591490555532885
3.119913678548467 0.7097582546510564 -6.6060725388847805
3.0660549132253063 0.7082344116017418 -6.619660212179212
2.99455490564069 0.7101630258603413 -6.64168885643185
2.9234933485569354 0.7101219374678027 -6.665508757376836
2.866809244067924 0.6954306968858404 -6.680536683490079
2.7708198086250238 0.6625642480567182 -6.709234698791474
2.68767162018962 0.6265884116040679 -6.737003605585866
2.612671055513628 0.5958021695423363 -6.768416537505789
2.536839532994339 0.5841774136638931 -6.814568069109737
2.5042173091863082 0.5823734903694537 -6.838090195977562
2.440976783521055 0.5656876087553606 -6.882133622820884
2.393988118962481 0.5469553775849729 -6.917766553299585
2.3541932238284176 0.519938145509421 -6.949684874764868
2.31867603877861 0.49582531963598986 -6.978173036586179
2.269837184103894 0.45641178797005133 -7.025829529684738
2.2194059120865934 0.4118120096491793 -7.085929118337913
2.177290654884522 0.35586406690633 -7.141793067244175
2.143803122643541 0.3199504092678189 -7.196488693908245
2.109975402333872 0.27008712358912645 -7.259347397658417
2.0790334120794856 0.2125296118190898 -7.324037964470382
2.0538676057558063 0.16678241963667828 -7.394572304809489
2.0335187417200817 0.1508318369189796 -7.462342184144531
2.018464835748403 0.1442089724046871 -7.517133767628794
2.0055880667564665 0.1338267357858991 -7.571486646982379
1.9938086552325456 0.11868558361724779 -7.626983904529794
1.9802022725468311 0.10291443223245911 -7.696258575073214
1.964352155555984 0.09923998388644617 -7.764517488939418
1.95426181905976 0.09407098663697888 -7.82982963184776
1.9436121472341585 0.08788845417178437 -7.8950234173234435
1.9334217821265463 0.08178740410336283 -7.9560828733641635
1.9200995481084862 0.07501848717493087 -8.031055554096472
1.9100578165174025 0.060172688873718405 -8.099919635328325
1.894756860828327 0.034306095408358495 -8.214000569904751
1.8817393096279642 -0.005644778656799243 -8.315703219151231
1.8722494949965447 -0.036664955659199805 -8.399805149235574
1.8610614523039815 -0.04991413983022652 -8.475130043129019
1.8518184284490462 -0.05910461439933834 -8.53178033850638
1.8415147785774217 -0.06899904873596197 -8.593880364616387
1.8285094994286413 -0.0713814693216257 -8.661288373094301
1.8118099920470292 -0.0733135165827461 -8.745672481920803
1.797955118674052 -0.06664048101675069 -8.798544425458001
1.7807032167476429 -0.05564757338858439 -8.863107595964586
1.7727092851401611 -0.04879086002503796 -8.892543640572505
1.760433379298687 -0.03693300829628954 -8.942550502056081
1.7479754602660382 -0.04503995688285234 -8.999523843906662
1.7327301997402578 -0.05729607958576732 -9.074174232863756
1.7122827048848643 -0.060206261442354414 -9.162589028121293
1.6925392626745275 -0.04243498654173661 -9.232315597722843
1.6798008312510817 -0.07292943592510603 -9.308448313894496
1.6724084937010044 -0.11031513941627957 -9.36777568167472
1.6655287895840596 -0.16374751584638325 -9.434185574683479
1.6522838405479447 -0.19030510436685244 -9.511528397267785
1.6403617778450024 -0.2059227897702498 -9.57314074818855
1.627423385814481 -0.220579466038614 -9.63849007083657
1.6119356533288165 -0.22952690422243305 -9.71130920331072
1.5982397165926803 -0.2369758187088591 -9.775327544073814
1.575608319950605 -0.24267751947479543 -9.878818507599258
1.5561633438614866 -0.2470969226834938 -9.969830177694858
1.5376179028910693 -0.2612382408530576 -10.06668837326878
1.5185669574234688 -0.25352505114994073 -10.151582510618779
1.5040667642615324 -0.2509130922960521 -10.221135037808352
1.4860564712100681 -0.2307997107640276 -10.296245606640632
1.475023614370719 -0.21730761673955157 -10.34406437710941
1.4632544222035362 -0.21215919108010883 -10.405941890250865
1.4547859612689147 -0.2502530531296252 -10.484995585869832
1.4502017364552295 -0.27193355281227927 -10.531913311933007
1.446386495817035 -0.29815117766243593 -10.579220312854185
1.4433385299753367 -0.3269371018507039 -10.624275905694144
1.4413542346650325 -0.36060383732709256 -10.667665566531243
1.4387504619781066 -0.3905803539664865 -10.716405943242428
1.4333098582498711 -0.4138440289069969 -10.78024996237017
1.4252746692587506 -0.4283274795139167 -10.860035027359464
1.4202398055668568 -0.4320274566838187 -10.910660319094388
1.414931303973758 -0.44418807827271123 -10.981139605396104
1.409824548110855 -0.4496090517581679 -11.052947319081236
1.4061127256742783 -0.44640059339997396 -11.107224049348673
1.4012191697425702 -0.4328036946132918 -11.189716561540308
1.3992092742661306 -0.4205812886905467 -11.263938338400669
1.4010071668281399 -0.4350510117113797 -11.325828205238933
1.4034914584963116 -0.4057788850819948 -11.407916450269449
1.4058909080760225 -0.3837926874469504 -11.477632965483847
1.4096284805881296 -0.37213403557220004 -11.529663275549666
1.4139226096197135 -0.36531370399673 -11.58114469515577
1.4197738254263763 -0.36185237933109105 -11.632048998647848
1.4271331714302078 -0.36408385664671417 -11.682012739879683
1.4403484261675885 -0.3593869771271512 -11.764158936534464
1.4495553193829114 -0.3377751397950639 -11.830255791545024
1.459952781423339 -0.3215163170133959 -11.892185724874437
1.4695630162517102 -0.3017968833057074 -11.949730957951308
1.4836394543675266 -0.27563746396076994 -12.025782834633628
1.4961980795538214 -0.2507594109529687 -12.092444083397735
1.5159167349638185 -0.23738929672954412 -12.168727833164972
1.538589649676359 -0.22983634282212528 -12.242449182411784
1.5638728670743527 -0.25132435256311236 -12.297026438509365
1.5993986590427958 -0.2792468412720306 -12.364960074136762
1.6515715494757632 -0.2874847550405113 -12.477161088470494
1.67767266878479 -0.28725220612215585 -12.533022962494545
1.7015738996075664 -0.29063071238709015 -12.57883807154544
1.74148049344944 -0.2966376443315577 -12.652378719645917
1.7743457820552129 -0.30173442333437817 -12.708588206067253
1.8157174181630886 -0.31596376454273956 -12.76959970046748
1.8499881538466791 -0.33030629497035857 -12.814941333681713
1.8810233420426705 -0.3461399882392262 -12.854191334608009
1.9140880791743715 -0.3515169010771506 -12.902867121691985
1.9527600728906274 -0.36838506148392103 -12.950227465151213
1.983578270990505 -0.3817523106381919 -12.986132102086412
2.0274292530689713 -0.40077250642791684 -13.037220734599055
2.097472560899085 -0.4271119615792982 -13.116469516802296
2.1457694749688283 -0.4384508120482158 -13.176713972795342
2.209973257791989 -0.4545476756056628 -13.253161186057726
2.247289992799515 -0.44332363525825924 -13.317975121385805
2.2965146576765556 -0.42312559992100374 -13.404860751346503
2.3270265226244558 -0.42305867327048974 -13.44459414681153
2.3802304507172347 -0.4328382107960931 -13.502201715772204
2.438643768313733 -0.4467498218405632 -13.559936712903161
2.4829281454890895 -0.4569664471638464 -13.60264662666542
2.5405278561265017 -0.4679612891409406 -13.658922455419113
2.5909839274942437 -0.4727524045149232 -13.710714927520332
2.6356640667353197 -0.4766030514602375 -13.75584536145487
2.688708381396169 -0.4802963982947128 -13.809389139743256
2.7624566132470187 -0.49052978130285907 -13.875792618266859
2.8349552055000875 -0.49800995477704246 -13.939543104619455
2.9076088057950376 -0.5227445179142232 -13.987343481559746
2.9782453482431572 -0.5386669475218655 -14.036964008180624
3.038627553753999 -0.5552813213723078 -14.075536530187605
3.098889054975714 -0.5697897534101766 -14.11279052374894
3.1756584633239346 -0.5909074069104796 -14.154199016077188
3.2370424325654783 -0.5771098798403413 -14.208181464994707
3.3047748135297828 -0.5820473610718455 -14.244592344503044
3.357701811433819 -0.570192834233634 -14.27941601123095
3.4160288268576946 -0.5359208265105799 -14.328067952429583
3.466636971604587 -0.5137540781882386 -14.358857919559652
3.530483154619981 -0.4897980183460855 -14.390928968379969
3.59606345731091 -0.43768781908670507 -14.433879377936977
3.649689164889788 -0.41496803928036785 -14.45182017815733
3.705640500637293 -0.39123024433234166 -14.469217980800696
3.7479673598013257 -0.3664801712305834 -14.48446829116388
3.8087638331260143 -0.3163692424496303 -14.515288840269706
3.8536694592769516 -0.2897460484758023 -14.53122555921766
3.9081020405285156 -0.26290648941656913 -14.547823705190995
3.9658717384136337 -0.23666096211268406 -14.566390559232454
4.0502276265337045 -0.20923182807174756 -14.586817375983925
4.104477422096372 -0.1699695046550047 -14.61573016227322
4.167893236070043 -0.11741840734218578 -14.65130887931286
4.218400979508366 -0.08055478748870448 -14.675298401410704
4.303160010587936 -0.051531376958614095 -14.694422085136885
4.364205304354059 -0.023742887162547133 -14.710878204815591
4.427496051528996 0.025346424661124578 -14.736241715887116
4.477489616212601 0.05660679519970668 -14.750840915053043
4.520689432635121 0.0801983154076229 -14.761543757141203
4.587154465952677 0.10153907241392068 -14.77277830756482
4.65034221714607 0.12843841092943808 -14.78354211171951
4.705320273362212 0.15269536923714333 -14.792765283458973
4.785790021374316 0.19545587551355648 -14.803736218555283
4.848434619206619 0.19606974070674554 -14.805088006242055
4.9037662953586585 0.1859679500728484 -14.803153194839291
4.968847142125553 0.16658672407231045 -14.800236264932824
5.027580303251543 0.15205900898400593 -14.797517001826703
5.08560994238143 0.13387028791047872 -14.791882217816836
5.155161148908576 0.10543369340894637 -14.782634425496838
5.214084613400992 0.09469373206026943 -14.773396501600194
5.27021347650822 0.10054633931509493 -14.766759676439067
5.327970206021265 0.1098056710010833 -14.759003362695488
5.384268022304944 0.11488654877403648 -14.750360360703203
5.444564670172756 0.10629093662757927 -14.738663185736504
5.501354205851911 0.10827936385009918 -14.727757834091863
5.550351645172633 0.10526463589115842 -14.717765120596233
5.642753159259771 0.09297263468129624 -14.697066863092244
5.738020255469866 0.12325312892319507 -14.683046611972317
5.7954890734652 0.15634373261421275 -14.676982188659267
5.8433506517020035 0.18667960954116336 -14.672661152468391
5.9336658950320995 0.1943494151127505 -14.65783675651293
6.00074108508 0.20170316211315686 -14.647965611693643
6.061674013645662 0.20560295723660627 -14.639884839117782
6.132005601623964 0.19775914113833037 -14.629379965991783
6.212647234159146 0.19302752112898847 -14.620165775745312
6.2789951230332575 0.1854858652434086 -14.613417839068989
6.344068010373259 0.1820264575073436 -14.609681286654295
6.405937533163416 0.19019446225898684 -14.610061620703831
6.45482797737677 0.20384905775785356 -14.61206637688571
6.524539861421753 0.23479797389361612 -14.617284109153353
6.575720618129494 0.27690882550304985 -14.624045240555226
6.621971535037274 0.3279411575567275 -14.631825703704221
6.685744339186651 0.3681718906525331 -14.640876326506058
6.795142761658212 0.3965963639636103 -14.653240626124187
6.847957519104449 0.4068277523586554 -14.659745913905407
6.913756251879015 0.4148665337156039 -14.667793895863234
7.000942863521924 0.39906220327855624 -14.676134855192082
7.0708061711996075 0.4075137091368066 -14.686521501812488
7.134665766524188 0.42458639635004203 -14.6966185083479
7.196675625978841 0.468587960969588 -14.70727910071622
7.229043144095533 0.5107090916461414 -14.715577812750084
7.310908350434069 0.5766048156686681 -14.728564606847563
7.362514899748129 0.615970610486875 -14.737743487092079
7.419314240311286 0.6388144404439566 -14.744938966779506
7.4926857375122005 0.6843925835541842 -14.753287333989784
7.559611165277915 0.7415318883641933 -14.760025314805644
7.631410490165303 0.8026115905562838 -14.765531312430536
7.730227146143284 0.8603818229692186 -14.767329842296524
7.780542431478322 0.8893142927520159 -14.769002835731127
7.82535689386136 0.9150833444402855 -14.770491934197178
7.875624715403915 0.9434727973490789 -14.772606798151738
7.93999302326984 0.9842331812190077 -14.770892374317839
7.997941868452905 1.0249262198363682 -14.770396685002023
8.060311987740214 1.069934502563292 -14.768085924831372
8.152541491830569 1.1295111505092665 -14.766332387816156
8.20574315605927 1.1713887550389976 -14.763155501431072
8.25702874210148 1.218002757810609 -14.761181764349377
8.318557729068562 1.2753600664965148 -14.755668021105249
8.39006508913987 1.3321522334497466 -14.747225434539406
8.453414004924067 1.3756304843006768 -14.738045880594145
8.508952208191303 1.408806975388589 -14.72802084626009
8.56404373100526 1.4384172932013837 -14.716717619654139
8.617317073739308 1.4563287567811651 -14.703951214969972
8.666803952222125 1.4726179300278266 -14.690728893741397
8.714037514029425 1.4979084719489524 -14.67552591025036
8.772232111948954 1.5297260128077486 -14.655016501260311
8.820755838057579 1.558777283236046 -14.636034430118226
8.870378327949592 1.5885964762133027 -14.615990294031462
8.92626834542008 1.622416697597451 -14.591520191312748
8.979428819033771 1.669098828196162 -14.563666765045694
9.03210544298627 1.7152964504158128 -14.535404074648909
9.0534263636021 1.7325024755727358 -14.522841490077868
9.080905588832792 1.7527059289235625 -14.506056081854572
9.15223377388309 1.8109869471471567 -14.459737653500932
9.19032376193158 1.8458895316164592 -14.431000398561556
9.236811154141943 1.8859170952220274 -14.394397096393268
9.281657163379775 1.9270809363664358 -14.356552426323754
9.320473851631082 1.9464767341075462 -14.323622474220748
9.367643649094248 1.9711353779649563 -14.281845814658192
9.420028262947909 1.9914415734401614 -14.232784043903267
9.46671266560862 2.007534621120449 -14.186621858653293
9.506414773441701 2.025068032476188 -14.145391676001037
9.562821246474876 2.0675844922783737 -14.081784306748718
9.595219435100784 2.0822501257088426 -14.044997632147952
9.628506810833894 2.0950101825920804 -14.005161938230192
9.677524850152746 2.1161943504703995 -13.944701817885605
9.735924664783983 2.138709172855499 -13.86963683275145
9.769195658563282 2.1523258023498144 -13.82498035004158
9.809918515944132 2.171335663069673 -13.768586439383094
9.838524156648004 2.1876078218423753 -13.725632039656164
9.879441704824957 2.197185057252102 -13.670971661678776
9.924462126295579 2.218919300102245 -13.604042914202092
9.972223116985408 2.260267890282022 -13.523935002555941
10.005152751477521 2.288694380336908 -13.466273001873317
10.062568796247415 2.312904478631385 -13.384108856236361
10.101528665290882 2.354027046124073 -13.305386980880535
10.14630033126592 2.3726151352486173 -13.233184472254274
10.18531534838878 2.3830266143738355 -13.175773361519758
10.228928546195966 2.3915892825466774 -13.11114724603567
10.26364412760396 2.4054133807163813 -13.054629371929249
10.301498007512585 2.4218434024153623 -12.994140867786461
10.340984932345993 2.434149263018903 -12.934610923267401
10.382306538442766 2.4458726728786573 -12.874223237895732
10.431111340136006 2.4649183716568395 -12.797218805478645
10.473621780359295 2.507731251259149 -12.712032452581417
10.501764193557182 2.5315059867025465 -12.659800383423777
10.532015941293032 2.562087093376074 -12.601450349461414
10.561361629781317 2.5761485444672347 -12.552206168767668
10.604149234535729 2.581894535137125 -12.48994829336482
10.642626420681612 2.5647528854467625 -12.454596880179574
10.68464854569402 2.5467614751607854 -12.410172108155
10.73037825980838 2.5413415944934448 -12.353663450202328
10.77369023642564 2.5393841482346238 -12.298602350756187
10.844441092933288 2.5271276559048337 -12.213907862598708
10.91040638653837 2.510908491917081 -12.139266937230879
10.965539933535087 2.514734400523075 -12.064132891574845
11.016430675945351 2.5395140105250125 -11.978706831371964
11.044381768248567 2.5559463932711646 -11.928227962654343
11.08730462796522 2.5815182687477805 -11.85048669288508
11.121195170138687 2.582284479308167 -11.804532712340775
11.165838069101355 2.577118241085482 -11.748313200594426
11.229549008636717 2.574296629256306 -11.665478989673993
11.277370067961375 2.5781408697999817 -11.597324313885807
11.327409557704144 2.57444643765069 -11.532743835716657
11.36979188820058 2.590920743144303 -11.459128971912351
11.394586170619338 2.6212734355088694 -11.397447912806614
11.426083896399735 2.660504854359969 -11.316267453380648
11.45852532958365 2.694846331940645 -11.23672245594659
11.50122498895539 2.7164840174534755 -11.151016934744039
11.545988136911632 2.7033631004538927 -11.09932581646173
11.594125730873085 2.6893104909525842 -11.040886164810917
11.657367068888725 2.6887461540171707 -10.942074458590769
11.689962844000366 2.6931931160922318 -10.88491046860399
11.739696788655408 2.697378409207009 -10.794827995882072
11.78181298096084 2.6977089916037844 -10.719694034960341
11.804915650044329 2.699602368779301 -10.671268310419677
11.828605891364926 2.696349737677002 -10.624344530228823
11.856851949423653 2.6921606423549713 -10.55991665212293
11.884528904765947 2.684012393404074 -10.476677511297382
11.905843561488776 2.671960141951293 -10.384228822057779
11.921254980449131 2.6539261579547127 -10.300285509790355
11.931679202152864 2.642125920762619 -10.239023589495932
11.93628271784273 2.64231281875266 -10.174538209650876
11.93863604265675 2.647581654765058 -10.1151540544744
11.940520152686489 2.6543408919927396 -10.040814374092918
11.938907930300985 2.6610222606997107 -9.95926478020987
11.935943850514818 2.654535187735658 -9.889182435632145
11.925870989630344 2.6480997869012306 -9.8242520920485
11.910764245295002 2.640371294767845 -9.762262178125301
11.879544005513125 2.6363422191567096 -9.67476560087776
11.852718311742784 2.612948792610612 -9.612611585322968
11.823176439866174 2.6085169135906705 -9.556324460038006
11.787699431185498 2.6102527576201595 -9.495893076706222
11.753326769042186 2.6067614713570366 -9.440913248570519
11.705545541884156 2.5969974710884403 -9.367994148292262
11.671613115494608 2.5854444665407206 -9.317350155889976
11.641924811089943 2.575057682727553 -9.273559087935109
11.59768079747666 2.564219955971997 -9.209795985237452
11.562060636965498 2.557153975258684 -9.159870305493499
11.530865648906993 2.550380966421833 -9.116200338459304
11.491717399157508 2.5361183819600273 -9.062540655071441
11.457706626238199 2.5241602161637084 -9.017567183772952
11.420626906200717 2.5188785490144214 -8.968136103892288
11.376936473396896 2.506413217966445 -8.912387319494053
11.313559183304026 2.4882084342636626 -8.832022616043833
11.24094503037977 2.4583590106243047 -8.745512042740424
11.197800686432682 2.4457297375154203 -8.695364138154407
11.157089112883554 2.4310416272783018 -8.648971165508984
11.087764662910644 2.413416122059407 -8.572116700820496
11.04105278492133 2.4028311089037384 -8.520409610271834
10.987898720506198 2.3915969902505294 -8.465894646952163
10.917798730767029 2.372222271653988 -8.394170987624669
10.844382183783445 2.350305251180141 -8.32548497393215
10.780919193363996 2.33544638663584 -8.266295599544383
10.743229003637893 2.3276485359274597 -8.2327659093833
10.686743821351445 2.318833241895576 -8.18293263420723
10.61108544867129 2.322259294267756 -8.117528325676775
10.528704742089445 2.3063472524881536 -8.05276238344554
10.459716981444299 2.2988922480909615 -8.000069442477903
10.384959208716758 2.290979553961411 -7.944615160663719
10.2866133482582 2.309396568419933 -7.866282968147818
10.232434604037174 2.2961994412077296 -7.832509552306396
10.14966612887709 2.307079311419405 -7.772664176824977
10.094823118835969 2.2880359633822875 -7.738509816126587
10.017525732068867 2.2826149049388773 -7.687283635962093
9.969087210878078 2.277780493857594 -7.656124813979513
9.919095584545186 2.2729948039714483 -7.624057334452196
9.858060788462806 2.2618485176976417 -7.586894358904582
9.813465499033377 2.25247287207178 -7.5601572644591855
9.757687073960376 2.2416031144080817 -7.526351722958408
9.688144832447286 2.229525598765848 -7.486055411029726
9.641107167206595 2.224563329260639 -7.458741980829573
9.58095760656174 2.220417099489495 -7.4241048976848
9.504191880641928 2.211778660537134 -7.3792665737007646
9.42355818683073 2.1911357415483703 -7.336801530821589
9.362870684895515 2.1762201233230103 -7.3045947232290285
9.283904640082953 2.1600053233884013 -7.263491285114921
9.233266208428287 2.1576529347750046 -7.236672926987621
9.13661856049332 2.159827220011593 -7.185845527768419
9.071709048922102 2.16217117883438 -7.15262269034662
9.008027139819525 2.162535391146826 -7.121039825239939
8.938555576591305 2.1619347752234797 -7.086174241086262
8.88396519798698 2.1397205396246646 -7.0632892835323995
8.81036020282102 2.1159205883020586 -7.0324244455519604
8.746692395145494 2.1154711213268476 -7.003716744993166
8.635971458196531 2.121132611187579 -6.95489749136963
8.574689323870723 2.116637278354509 -6.929702249874257
8.5022434626983 2.1055492482179092 -6.901712328707616
8.44668092817226 2.0973885468326685 -6.880836077583857
8.383716729348372 2.08600556585629 -6.858433221608199
8.3146377233758 2.0711201932849326 -6.836704203664725
8.24368184580961 2.055046886184855 -6.812874752986265
8.193790341831669 2.0446776278936127 -6.796678041438593
8.133983101336817 2.0331646777385615 -6.778347309816218
8.071870698711507 2.0218940070842146 -6.760620732966895
7.99567468231889 2.008254038458822 -6.740625844616616
7.943752160482486 2.000740932360716 -6.727481676597688
7.877120844585643 1.9937318539425346 -6.7116362078100416
7.808455932343729 1.9906627907349115 -6.6953728998825595
7.74852153812455 1.9869402633491846 -6.682408421633583
7.689469967186693 1.9803788709688555 -6.667639468794244
7.606650409045671 1.9535103584732123 -6.656789042973901
7.542576049717755 1.926707697633186 -6.64726262785103
7.474291328999495 1.8997400972327314 -6.637552695735837
7.413254726150377 1.8741873837618035 -6.6295872083617295
7.329064969616212 1.8428872035616732 -6.618638904609658
7.276154284518367 1.8343329257149905 -6.609260349076142
7.176571205365472 1.8225027496641764 -6.599108275143429
7.085583355932135 1.7906960179644298 -6.589459095250303
6.998106280257162 1.7718359347250872 -6.581026544015199
6.9294182210754105 1.7532743800806065 -6.574806061594765
6.860351618303633 1.7343027172003083 -6.569009059719285
6.794030576935518 1.722715488055454 -6.563319482201815
6.715616757077727 1.7175780877616142 -6.557847626135673
6.647099688337445 1.7018968253862703 -6.5532467482014924
6.579968816567577 1.6810714467501382 -6.549171182270452
6.523405690182812 1.656161001038792 -6.545810008724498
6.450521026220655 1.628754909669844 -6.541612494744548
6.388180219184478 1.6015811287300366 -6.537867463838001
6.339208856153708 1.5772929238686857 -6.535043789238943
6.2781883134396965 1.5470909891077558 -6.531455101415463
6.212416777585602 1.5295315149550104 -6.528271479836043
6.141665691759718 1.5114786605155552 -6.524697092853113
6.085804209245817 1.4979094907455905 -6.521806850690485
6.019059567582506 1.4980693320541645 -6.520863118437839
5.969447175155386 1.482897294665302 -6.5185247310644305
5.898488067558551 1.4584027862170756 -6.515020285134958
5.841223258727378 1.4310422108327525 -6.511242541184755
5.7475464011647155 1.3877416799560736 -6.504269110653946
5.629503491483281 1.3319733177985198 -6.49506215593268
5.53617967392683 1.2979233378110833 -6.48755068731303
5.46518202467059 1.249004353253697 -6.47943444310509
5.418162054147119 1.2222765341079744 -6.474652117152876
5.369768423746415 1.1971094910061455 -6.470372885308753
5.322510930133416 1.1741485941577048 -6.466831290381336
5.260388732533343 1.1569007120524344 -6.462458645451134
5.1749383673480445 1.1635634163269744 -6.464886481116002
5.1148422595701755 1.1568242162135653 -6.463880812374399
5.05571205837697 1.1478057246676518 -6.4642171653180185
4.985463369365542 1.1208240043099489 -6.461181990199793
4.917051525332944 1.0864376490731245 -6.458656242140051
4.868186132501938 1.0733754248374467 -6.458348694674564
4.808622453846688 1.0605893793206287 -6.459672166933925
4.754031153294245 1.0488488234908149 -6.46033126220565
4.692170167580475 1.0367447232270626 -6.462391345698173
4.6174239445181176 1.0084580435592365 -6.462277599842931
4.512044169185268 0.9704856639715558 -6.463655031721595
4.454561657914525 0.9558332094535478 -6.466213807631619
4.3931678038789155 0.9403172170280534 -6.469503565436357
4.337764766063257 0.9333372299338707 -6.473918179864597
4.287113016378044 0.9271283475197671 -6.478906038442444
4.22347353154386 0.8911363026376142 -6.478754380253096
4.162267978240404 0.8876136952966378 -6.4857181416404535
4.08915565409845 0.863915213490644 -6.489558069739195
3.9874408544296833 0.8426453306803625 -6.498389636304781
3.9054802321915973 0.8285661876908044 -6.506298535486435
