468
5.04470118440314 -1.1993102111704417 -7.3004871600799826
4.9706141519019065 -1.2221577601855729 -7.277555795119372
4.906188503341968 -1.219525525642069 -7.259204238598175
4.837394864121954 -1.2048389959345638 -7.2412626346744196
4.790252029079987 -1.1901759182728346 -7.230247097445878
4.717818965930584 -1.1569202131010883 -7.2136471678461005
4.6585556477603856 -1.1256214236556916 -7.199657488701056
4.603550046767478 -1.0956847574494546 -7.186209021963566
4.528666990744098 -1.0379612897755 -7.163382541005958
4.43932417179151 -1.016248440482539 -7.138661828030576
4.3801517880158425 -1.005006265364577 -7.118682800589846
4.319143752686637 -1.0003717419398739 -7.0948719117359955
4.231164555527988 -1.0123394920293216 -7.057063581535403
4.182274525719123 -1.00991154739267 -7.032000137343954
4.107451761429892 -0.9972308815571185 -6.989886960347762
4.0382994157188685 -0.9984971409054626 -6.947706980440361
3.988608966917117 -0.9870222700704703 -6.916046706904161
3.901195856916803 -0.9747053425023389 -6.858668131837219
3.827085047283153 -0.972612984441054 -6.808001903346324
3.779795901480369 -0.9846023413286009 -6.774905568793339
3.702682335382006 -1.0207773884066145 -6.719498587568963
3.6388507143027597 -1.0368934319715073 -6.6729387084988
3.5851703537290263 -1.0526900382206856 -6.634130832642216
3.5033689315430183 -1.061827334074581 -6.572379606914191
3.441325791003799 -1.0761968720117998 -6.525662392414364
3.360765422744121 -1.0831816254096127 -6.465097777858406
3.3135757951914613 -1.0838044162226577 -6.4293579104337555
3.2483212781446804 -1.0867474553461804 -6.380312012047482
3.177953780399486 -1.1026838681732494 -6.326513088333537
3.1095393836206373 -1.1205106043719038 -6.274201093696516
3.047236948894176 -1.1315849095894974 -6.226665673682585
2.9789215094694916 -1.1399321582730986 -6.1756905506367845
2.915030365426638 -1.1355460869946483 -6.128016464657676
2.8418713086941545 -1.1546607555154094 -6.073117323198642
2.767463332797352 -1.1425979854172053 -6.01880395960013
2.7237649743475125 -1.1333861247552297 -5.987782082695609
2.64927032728254 -1.1132576148936844 -5.935266258195296
2.58236821438869 -1.0882389113903221 -5.890777451974032
2.5055128922513052 -1.0700347585314465 -5.838282233624015
2.4275985312335435 -1.0562081238324592 -5.787563523309216
2.375853019169446 -1.051530027097087 -5.753792163708744
2.310308833297994 -1.0580851435826408 -5.711776074810941
2.2688141403330246 -1.0690127552996285 -5.683666760373073
2.226243326260095 -1.0839527883733313 -5.656197192992058
2.1706778038843253 -1.106839268470476 -5.620673794409272
2.10565337794983 -1.132803722049429 -5.580464924376846
2.0210079034322574 -1.1581461666435489 -5.529983347816625
1.9440733553466822 -1.1732247943390033 -5.485634034532968
1.8737664501826699 -1.1724554764524335 -5.447128029037194
1.8098693720537073 -1.1730157197558249 -5.412565754516482
1.7405556051826334 -1.185123149213702 -5.374667781581622
1.6787666352455575 -1.1948393247094973 -5.341745682452915
1.6241514950676574 -1.2029318323031102 -5.312857345465551
1.5419195391620095 -1.2065288030768269 -5.270979972420666
1.480099813723855 -1.2056540484814486 -5.240251506949472
1.4186103641279542 -1.2035331478473146 -5.211153480286246
1.3573960568968262 -1.1990786579607349 -5.182495204959136
1.3073454905146682 -1.1950138202068057 -5.15845682857435
1.25679373369327 -1.1927869553675998 -5.135994905510237
1.1995971723990824 -1.1906225295868502 -5.111259936004235
1.1097733784400778 -1.1949076835338128 -5.0715426375074975
1.0111145107207196 -1.2024861029017897 -5.030605669681381
0.9537039673781813 -1.2082917839255158 -5.00712024428083
0.8950960681133179 -1.2116190783563587 -4.984245684990079
0.8365712967309669 -1.2131170928110138 -4.961914701560191
0.7703775404509061 -1.2144412774369113 -4.937650041147403
0.7093067657059873 -1.2146077166131688 -4.915365273797872
0.6462048526375984 -1.2128888615179136 -4.894542586422206
0.5770888150107201 -1.214856412569565 -4.871800166647157
0.5098043159988424 -1.2156086315056918 -4.8506925871057085
0.4406760150415445 -1.2202066018741389 -4.830392669878288
0.343505127917159 -1.229205629963603 -4.804476279208936
0.272608509999845 -1.2234397438405267 -4.787639278500559
0.19555435845983932 -1.2136695087275182 -4.771091108906623
0.13670225301988387 -1.2065927687187201 -4.7595494337911015
0.07794713877593523 -1.2001937369070816 -4.74899138206603
0.0010607696825892243 -1.1965656814817969 -4.7366141512753765
-0.0908612336560643 -1.191022746483696 -4.723325319675491
-0.20056949001343544 -1.1626590139580881 -4.709896104502344
-0.2811664736883301 -1.1533826315721494 -4.701242272116758
-0.38274918685057363 -1.1485062261852037 -4.69173929826815
-0.44607202781157923 -1.132579911666419 -4.6865316199000455
-0.510436288797032 -1.1168588376945472 -4.681341965838832
-0.5749249386324262 -1.0971730823996013 -4.677487884860615
-0.6710176214836368 -1.0734404385678995 -4.669857174499519
-0.7313156501583902 -1.0561366320966814 -4.665738340545833
-0.8008128775641425 -1.036800621704346 -4.660944498686762
-0.8769551140922072 -1.0168172336646395 -4.655192571608043
-0.9552211609831018 -0.9959064055046771 -4.649362633410324
-1.0249250773632586 -0.9736535165289766 -4.643431476701035
-1.1052723431783988 -0.9478412767651665 -4.636410267363275
-1.2115651203287598 -0.9126348106540378 -4.626989451251627
-1.2804097322038124 -0.8885908830458642 -4.621232532853382
-1.344538414825752 -0.8669675600244586 -4.616031764504885
-1.4254947514222982 -0.845223772565787 -4.610003781628191
-1.474156429565916 -0.8302899769573768 -4.606538467678335
-1.5230272564257783 -0.8166415165258818 -4.603187952304912
-1.5946096530942064 -0.799130884616704 -4.599568610208534
-1.6695505169327287 -0.7796783904460294 -4.596027532042083
-1.7422015919489269 -0.7669108121936055 -4.592827330048058
-1.8370049372605788 -0.7516414234673283 -4.58990908110977
-1.9074738974425398 -0.7430394015577608 -4.587828908963643
-1.9918004169921102 -0.7658236632038218 -4.585475743161199
-2.0833508870565662 -0.7900929485387003 -4.583515493155576
-2.1380981015475835 -0.8227947213315026 -4.581498788792286
-2.1997071312038754 -0.8605786715787294 -4.580325029069984
-2.256134170937199 -0.8820977568813584 -4.581851615352557
-2.331173519389014 -0.9309324772984753 -4.584872900815435
-2.392146413520125 -0.9731930604850607 -4.589884907691717
-2.47311132886471 -1.0186960160764003 -4.604023568894631
-2.541964039779077 -1.0537519106859052 -4.621604508246192
-2.598816656132145 -1.0739671269149742 -4.640874104756243
-2.6566931367323012 -1.107586331204696 -4.663174327000217
-2.7235973244293703 -1.1557210737337895 -4.6929540266360865
-2.8010143015401314 -1.2040986716748445 -4.733738891490112
-2.871368860293324 -1.2266769421601555 -4.776786656520375
-2.9558404032101535 -1.2545351547194246 -4.834878893856456
-3.0126436431150085 -1.2825346627354108 -4.874433784263675
-3.0768425390882626 -1.3130879251416694 -4.917950619202573
-3.1641881040518403 -1.3338676828222167 -4.972979343794567
-3.2320093845861324 -1.3432489151337004 -5.008947482766755
-3.2843348589239154 -1.3471974008801544 -5.037848048728819
-3.3503822499978853 -1.3478274306430076 -5.085019564593642
-3.3864548182712095 -1.355823721409511 -5.11897606423918
-3.4234680581936465 -1.3645987361476348 -5.1583451965504485
-3.4568854650315095 -1.3724247420737057 -5.199315175136693
-3.490438619196688 -1.3913833717999324 -5.237129580033972
-3.533328604154254 -1.4122762203678634 -5.29175541802145
-3.5658264221216927 -1.414862174309902 -5.334245845390462
-3.6059659429251827 -1.4235030963201698 -5.388828788631286
-3.6381458321359865 -1.4276747609436453 -5.433939141516639
-3.6713379764057166 -1.4364125297274644 -5.479654343885978
-3.7098403714901336 -1.4462725756171422 -5.534211343169003
-3.7626653230781146 -1.4371160083215884 -5.6159061897960045
-3.802580898218884 -1.4265945419735186 -5.679855182178085
-3.8320388014007403 -1.426725510312881 -5.725209523715011
-3.869432189579741 -1.4305642660003914 -5.78157839460433
-3.9035135337631672 -1.4261761817520997 -5.8362120422431305
-3.952969651244916 -1.4215730222832743 -5.915686545897411
-3.985761157996932 -1.4138384779014606 -5.970625817237203
-4.047671035784176 -1.4071056357089837 -6.072171015812514
-4.082667299433649 -1.386584513400399 -6.135922019291667
-4.120067911906163 -1.381238956644531 -6.201750735983986
-4.156995547220134 -1.3763290526559286 -6.264067939477541
-4.193204408522963 -1.3757510162433322 -6.323151064153145
-4.2276395085805865 -1.3643207487481217 -6.38827913033452
-4.268539186193596 -1.3735772429984185 -6.448709119207478
-4.3177807920497004 -1.386553684378176 -6.522911139121942
-4.352364118788838 -1.3847829008941632 -6.581741774601933
-4.387327572371685 -1.4008642419078117 -6.62885915975217
-4.443135677132268 -1.4160200710524045 -6.711183204917268
-4.49591617105751 -1.4265180569770626 -6.792083534952282
-4.54108243167872 -1.4384028287889654 -6.859423548178142
-4.604805674724856 -1.477544384881434 -6.935123410669399
-4.646918528735882 -1.4884498424099337 -6.999402246709603
-4.6891804235636405 -1.493465513337298 -7.068260458553936
-4.72185998451723 -1.5007898751907327 -7.117442930029461
-4.76811019395908 -1.5126383490607165 -7.185357616707512
-4.83664278720078 -1.5337930428140707 -7.280103421623054
-4.868929926128446 -1.5222678651722574 -7.3397599081304525
-4.907048971181248 -1.5130550628715598 -7.406609244955971
-4.962398019778153 -1.5077615885534565 -7.495743672800248
-5.014511097229642 -1.5212286962200998 -7.564805662427637
-5.056772563330854 -1.5266187590626654 -7.624067049480099
-5.114180717129945 -1.5511185779886243 -7.693706224575556
-5.157270097172821 -1.5508558120900555 -7.7582616712071895
-5.210151143606466 -1.5798745513299115 -7.821435238465848
-5.269511799402327 -1.6183853045396939 -7.889544247631805
-5.31095314401708 -1.647471667102041 -7.9396779895591925
-5.328370373444535 -1.657537900998965 -7.96227259686025
-5.363365521045685 -1.6788163998195884 -8.008242868286967
-5.422651723816085 -1.7135257926853884 -8.089511612340136
-5.4629543297582455 -1.7451421204340136 -8.145283309192745
-5.497365287160902 -1.7721552015115616 -8.195650007825645
-5.53749064658817 -1.7971408801249447 -8.261736148356778
-5.581635786492345 -1.8221245586035242 -8.340852629890382
-5.613494058120206 -1.8421591958347105 -8.403097140790024
-5.64069749291753 -1.8599581444353435 -8.459227196430096
-5.665834739807459 -1.8786604304382817 -8.51601625003704
-5.6891833073627875 -1.8980726719061467 -8.573455762403313
-5.7109364987184374 -1.9125568101834902 -8.634455447645472
-5.7345960643593985 -1.9281142000752003 -8.706858992352068
-5.756632386159358 -1.945828271843578 -8.790824320331328
-5.773156451168937 -1.9596336216728403 -8.856777216135711
-5.788241075540111 -1.9760291575752786 -8.923372900009493
-5.805659088475503 -1.999782135127625 -9.006399912918713
-5.821769404200468 -2.012216939135681 -9.102517928947936
-5.8377496935168045 -2.041107090126757 -9.20762503543462
-5.846763704078852 -2.061313069484733 -9.273436572435976
-5.855836232632244 -2.071988408372518 -9.363800830486355
-5.861907162730965 -2.080709905370194 -9.430623185209882
-5.868105912973538 -2.0908451656890374 -9.505826186055348
-5.873072695771119 -2.1000764589937324 -9.576038136561642
-5.8772927080541955 -2.1114549334571224 -9.64553025210601
-5.880572438149244 -2.1226590898504263 -9.705124097133698
-5.883918649656246 -2.136659279108825 -9.781786256409166
-5.886427141936196 -2.1516647175591226 -9.84813239880107
-5.888115475898182 -2.168460079430975 -9.913284807068806
-5.88980142946691 -2.184528252658145 -9.976662572482237
-5.89095248909525 -2.2070804402815956 -10.058518430049215
-5.891013491376578 -2.2290354377790402 -10.126803369781477
-5.891680894964866 -2.2420616694752447 -10.199689515222705
-5.891016755286098 -2.2669939491289557 -10.308356149102206
-5.891961166690595 -2.273497605013213 -10.39091387223209
-5.893463263258959 -2.2783474439025566 -10.452745382426542
-5.893650521041271 -2.2824728340330207 -10.502643052305157
-5.893598851077067 -2.2935840034781085 -10.574184529257021
-5.891905488055477 -2.3097933750937303 -10.633896074915548
-5.88780831218063 -2.3297438068899066 -10.688040373694125
-5.882150964514373 -2.344311458491287 -10.761721029053586
-5.865221054704413 -2.3780730526585248 -10.8491896239885
-5.85146411217795 -2.393132159965921 -10.909235650165478
-5.831688304216572 -2.410338520031681 -10.974247130726251
-5.786199527876002 -2.4510042154102205 -11.070818810122546
-5.751682451408989 -2.469101237886206 -11.14716379945536
-5.709157944236266 -2.4859182124922556 -11.235731992590413
-5.665176573433369 -2.486333272872039 -11.348258171053008
-5.619344161724195 -2.5029844275071325 -11.436864843584704
-5.593530504480858 -2.5117636078382937 -11.487516210196347
-5.545365470199634 -2.529902954987809 -11.575120177117956
-5.505282855774592 -2.54345948285716 -11.648906153766216
-5.477141453158687 -2.5546183074710376 -11.694567136249933
-5.434376723298647 -2.5748082590391057 -11.758592691501612
-5.395091064495062 -2.5936611701420262 -11.813471666041707
-5.32899449611832 -2.628327978360579 -11.895659301783528
-5.269469500330943 -2.650566643424189 -11.978369512594142
-5.231295698182251 -2.6640591042140493 -12.029134580158765
-5.186435328539621 -2.6801275460040377 -12.085125514848084
-5.13616690123619 -2.7022888621325025 -12.139253380465178
-5.097589744741748 -2.7148298649880247 -12.183469906466364
-5.0136216009539885 -2.73310919585271 -12.282089520332462
-4.95052264503055 -2.729694476729821 -12.368405178634521
-4.902093708626207 -2.7253334073959397 -12.42838769014536
-4.864022953528182 -2.717865594379713 -12.477091420814087
-4.8270126966737035 -2.705859437941786 -12.525356773411847
-4.775372820626951 -2.682407418533291 -12.595119018212607
-4.724787827460995 -2.6622354260771193 -12.65624439113489
-4.6528859819499555 -2.62427894787709 -12.741090123786165
-4.600493935714816 -2.5940272897822427 -12.80008614683203
-4.537435075367711 -2.5669255879864106 -12.861277915775101
-4.501036603980755 -2.5353346605362295 -12.90459605382788
-4.4605272119267445 -2.499941530386769 -12.952063032987088
-4.397821170701887 -2.448887091091642 -13.02099549844878
-4.35712024003785 -2.4367497037079735 -13.051173060343416
-4.284195702670361 -2.420050709974716 -13.101879515671488
-4.207322018086274 -2.396371050238447 -13.157641347944946
-4.152984536394681 -2.3709742865724306 -13.200804356759313
-4.11555089322223 -2.3532827560809086 -13.23000449372839
-4.0525169893305275 -2.3101468505361504 -13.284864496916029
-3.9962080255335115 -2.290840063240847 -13.32403976290924
-3.920051899563463 -2.2679247490390253 -13.373637809636826
-3.879271688569034 -2.252247948862177 -13.401548690588601
-3.8382193077178037 -2.236603111668866 -13.429344681699103
-3.7932838414256107 -2.2324577801345513 -13.452759091881909
-3.7478548808713406 -2.231432591358238 -13.474533434755344
-3.6685886618094985 -2.23466878945221 -13.509546498800088
-3.5835777782048988 -2.239144955393185 -13.545571235210087
-3.5166396801240762 -2.249736057052611 -13.570359655152007
-3.451661100755386 -2.25990757158726 -13.594020573570202
-3.3488050090310284 -2.2824132338209946 -13.627337374828645
-3.239499850538961 -2.2996701758253435 -13.666035924035207
-3.1759125378877116 -2.3126500211116783 -13.686713211447113
-3.121257969766137 -2.32424483528938 -13.70405672265154
-3.0527311878547985 -2.3372750301707477 -13.7267504457166
-2.9987470122786473 -2.346588616080551 -13.744891525074635
-2.9261728775517195 -2.359013277161103 -13.769179642872356
-2.8553112221982317 -2.3674636031857483 -13.79477408667696
-2.7396068974554186 -2.3769569434571896 -13.836165437518599
-2.6066977032587193 -2.4064519275271588 -13.872650659832697
-2.547303206025154 -2.4005808042477472 -13.897793359224284
-2.47438826884961 -2.3979095219653423 -13.92502094963039
-2.4182333553566373 -2.3841199739052206 -13.952896330825563
-2.3469415724166254 -2.3679498160531938 -13.986057682890117
-2.2792735202271786 -2.3489386885761254 -14.01825926304101
-2.2232389465824016 -2.316937762015359 -14.052796080501022
-2.146821232963883 -2.2770680382716977 -14.097211230738527
-2.0658953970374423 -2.232561293635867 -14.144498238358285
-2.0058633419518688 -2.203916729174339 -14.176468932707973
-1.9568500842966068 -2.175464029520653 -14.204794554977134
-1.900562564924054 -2.1432217820807153 -14.236530760058976
-1.8438865206439887 -2.11227838399667 -14.267091855714199
-1.7872850534273041 -2.0807086356711615 -14.297623695512367
-1.7386395631013811 -2.050949015085113 -14.3245761043503
-1.6742388434973154 -2.0124850255034232 -14.358018629001304
-1.6161909967257722 -1.99094993907881 -14.383410906120645
-1.5600537847346594 -1.9697314336456053 -14.406506856657003
-1.505731625259049 -1.9387130350128543 -14.432991043747283
-1.4229713985338386 -1.8813511617100682 -14.478406259637204
-1.32040868652886 -1.835525364780701 -14.52023662859597
-1.2418809917952363 -1.8204236699026644 -14.541908971846428
-1.17181943264103 -1.823467649405048 -14.554151311912637
-1.111927985577824 -1.835204038039254 -14.56121238778908
-1.0613817033908346 -1.8370126268237947 -14.570448014961869
-0.9869859474196947 -1.860221501674724 -14.572403690677739
-0.9082678473646244 -1.8575214445825545 -14.588332234934612
-0.8330940036661407 -1.8668222628870552 -14.595542434203487
-0.7616418902390765 -1.8473556603427248 -14.615695863457137
-0.7114459600222489 -1.8427933001437506 -14.6251764430402
-0.6417469727974596 -1.8371837008352012 -14.637005932913414
-0.5727001429562371 -1.8332417605786886 -14.647297698385579
-0.5202064942274842 -1.83387920254848 -14.653300071765084
-0.4313724358977185 -1.828266666268156 -14.665734935038412
-0.3732635327704911 -1.8222029714911963 -14.673896454968823
-0.32494407849452317 -1.800704924753432 -14.686629709006954
-0.276003309972141 -1.7803213621028653 -14.699699244785009
-0.18880313726114112 -1.77131991410985 -14.708248866905866
-0.0948901192756097 -1.762584785320727 -14.716968611539112
-0.001682246029861778 -1.7556997304412572 -14.722367631307883
0.054385273609124596 -1.7416144972714571 -14.729112441214497
0.1171956452664043 -1.7251082282740462 -14.735437180913852
0.1747588139222715 -1.7112089251552458 -14.73986271506817
0.24249883012245904 -1.6925712974824265 -14.744822432745607
0.3052327362270345 -1.669022177134097 -14.750508872069588
0.4041046468027574 -1.6386078655746488 -14.754026196558684
0.5020595435816934 -1.6059064577404452 -14.755277459778483
0.601496469842182 -1.5658379570237555 -14.755140777872647
0.6537264128401891 -1.5472082426110167 -14.752829394765985
0.7182815982386361 -1.531103155288334 -14.74659455364625
0.7859603197635827 -1.5121415136698317 -14.739769301016405
0.8479138971853617 -1.4853989537268117 -14.73487727924385
0.9021795263243864 -1.4567235730338648 -14.730702940742503
0.9807429091494244 -1.412628497380561 -14.724185980483206
1.0581188640053436 -1.3734601779883855 -14.714382083339551
1.107741553615218 -1.3440919232705653 -14.70792749530527
1.1594827117147535 -1.3056565809964207 -14.702650789018477
1.2311007304390662 -1.2756730741958104 -14.687504853325173
1.2919163398953353 -1.250099912881581 -14.674342836717937
1.3504004404044345 -1.2194309899319618 -14.661536483788563
1.407470023301816 -1.1870826410539654 -14.648632976569576
1.4657049394144464 -1.153480189866603 -14.634124256482792
1.5231704402135793 -1.1204342665172506 -14.620429690660632
1.583064349258933 -1.0885663322800736 -14.603265263547929
1.6409226542851238 -1.0598867155352119 -14.586195888820669
1.7111423248563389 -1.0256384113290926 -14.564194469276764
1.7553929979548268 -0.9921073536394978 -14.55120754771179
1.81163903167814 -0.9552156117870019 -14.53305701803271
1.8684172348611605 -0.9194360763208016 -14.513859721229036
1.9182258755208221 -0.8867457324789663 -14.497267089237535
2.0066579205338217 -0.8558775619136034 -14.461821283798187
2.069788929335364 -0.8292178635889305 -14.436616331902304
2.1373383749544095 -0.7966476465490173 -14.408840050605665
2.1916568558813223 -0.7349558860732832 -14.387949116375768
2.2461223323550064 -0.6853954282099999 -14.364398496342531
2.29804411897341 -0.6564156976397029 -14.340238158494554
2.3449590943238183 -0.6204182676167003 -14.318080119997031
2.4482701205183304 -0.5567313937794738 -14.26722653156461
2.5074399879476355 -0.5329769619823996 -14.237789900914237
2.5632698043630637 -0.49417830245997263 -14.208716465601789
2.6292388061266623 -0.4264485698115654 -14.171632148985893
2.6945714819302626 -0.3739748297803054 -14.134979151265895
2.7440041172912966 -0.3440504873964041 -14.107659001460636
2.7840875502778584 -0.3217521509704322 -14.086217622555555
2.849069827547032 -0.27126851869888613 -14.047712365663525
2.902309772266734 -0.23140841325310602 -14.015553306874285
2.9685201603907356 -0.20016997934296343 -13.978381943768468
3.0118087707846444 -0.16383512628003238 -13.951284748576835
3.088686069137685 -0.11947839478438205 -13.904933023702643
3.1438178883110455 -0.05807462319499024 -13.8649305077711
3.181681795914943 -0.019843590284591706 -13.837404254774746
3.2454971888244346 0.04441859739735898 -13.789054550147881
3.303709014822035 0.09453683529930101 -13.745336181858828
3.350935529513408 0.12868851098705525 -13.711148053179581
3.391773795241415 0.15527169088937187 -13.681947796331677
3.465052148553737 0.18441271354204236 -13.633184856978133
3.513376739689901 0.1971789272160076 -13.603797757869803
3.570177806801243 0.2287189512169543 -13.560920032585535
3.6151800866952444 0.2535097883907458 -13.525129289603665
3.6746944043079175 0.28863570886162204 -13.474494343673555
3.734577504424889 0.3163623783034657 -13.423613568739999
3.8053377260923407 0.32651474239130707 -13.373001447771909
3.8546137984282423 0.3449586979592518 -13.328648127695015
3.9003632640517236 0.3450698794704712 -13.297049632110824
3.9450807464642708 0.3400359089379785 -13.269587524481395
4.009394375978455 0.3476486463296795 -13.216626085924386
4.054025900333799 0.34623997089283787 -13.183647525424334
4.129965145851861 0.3380517749789975 -13.131332521521372
4.21177005194161 0.3534336159669267 -13.048725383868707
4.273759919969881 0.35781639412489774 -12.989206800368152
4.333465343529974 0.3497661461842174 -12.94234393426494
4.38025864132451 0.3473435727425018 -12.902093479483188
4.430174010968569 0.34896203950195837 -12.850849035430421
4.483016329479398 0.34980460515270817 -12.796132793056739
4.522426112123363 0.34950990511782853 -12.75492018479029
4.583297995661401 0.3436804887256999 -12.69918302966131
4.626182273764296 0.34085601506110264 -12.656921637277463
4.671472488075201 0.33908765285433384 -12.610318622225776
4.7097513780716245 0.3435118153535912 -12.559452294530121
4.746574878590875 0.34691366312317085 -12.511761316646723
4.7867970130916975 0.3498160267750339 -12.46130591797689
4.82697206208125 0.352056345326881 -12.412159920266255
4.866241839970421 0.3558101546991135 -12.362205665333125
4.9036489720039445 0.36361236574598177 -12.307851551789327
4.943138487728019 0.3728113512447968 -12.250252128125357
4.9894071142630585 0.3837164751026978 -12.184875264255318
5.028326612118343 0.39467731146719087 -12.127319609009337
5.068991559742439 0.40736529521988274 -12.065075526296845
5.1030644749370255 0.41811402676447385 -12.013255052325121
5.139767605061486 0.42924321506170804 -11.957334712180014
5.1781725627255195 0.43793132787596 -11.904109690034623
5.208457758772948 0.4430746252417963 -11.863219346198015
5.277267433789555 0.4659475860802953 -11.740676697998747
5.306517870947477 0.47157240190999206 -11.692479478687623
5.3411770473962985 0.4774362704032842 -11.632759718379635
5.36857384321416 0.48202340265313826 -11.578477981358287
5.399694614815711 0.4834150678534819 -11.521682370421502
5.430531146790505 0.48225575757922456 -11.46442888912442
5.467822125059451 0.47736834857296095 -11.390482005514219
5.497439537564828 0.4674426203631672 -11.33880409915481
5.523794324935538 0.45738983915394726 -11.29624600086185
5.568282151852592 0.4327989364774618 -11.2148428429892
5.600854239527494 0.41028781461933495 -11.148442355173813
5.630157274494433 0.3839881410869892 -11.078385160824542
5.654016979100831 0.3568888179855838 -11.016523002598365
5.686872557009175 0.3063373895157513 -10.907840250569084
5.708374332407769 0.2650662619814681 -10.832334316825552
5.737243962655795 0.20906789548487525 -10.740562239293961
5.750570885158508 0.16880458183920188 -10.668797423949172
5.772688360175276 0.11584273176398252 -10.593387306610463
5.807713708774116 0.04622539834287487 -10.514582549576382
5.8235908396257665 -0.0019297776176303572 -10.446622766134492
5.821859410723703 -0.03080868594238728 -10.38466697337395
5.834471540573214 -0.07292885555969875 -10.326449416193352
5.844407886062095 -0.11656569740419265 -10.26136761309758
5.848735237497401 -0.1539671518363721 -10.198453260822006
5.853671890416358 -0.19099190117016107 -10.136753952866286
5.858610085203839 -0.22915956050371555 -10.07571385318624
5.863390678373472 -0.2664246426188708 -10.014876211905296
5.869258085893101 -0.30330527489770254 -9.956027204880812
5.87625703153435 -0.3399494588812313 -9.898649024442946
5.884929888538686 -0.37662517455133293 -9.84312416782247
5.895626631944131 -0.41327388905855966 -9.789525139791909
5.905099656395097 -0.447298566098429 -9.736972344608631
5.913963728468139 -0.47910136397029923 -9.684879171658164
5.917263336815858 -0.5028376726724664 -9.635200515527696
5.91680848919384 -0.5407960866804387 -9.533401449945956
5.932713468236973 -0.58937844879304 -9.418396845095614
5.930914422969715 -0.6061096036716127 -9.349663413233134
5.925722322572973 -0.6256109645760408 -9.239591803726121
5.93197094753481 -0.6463206481269914 -9.171356299582584
5.935570659726747 -0.6653479268921891 -9.09816500889388
5.934516581439325 -0.6758556388432237 -9.042187623207305
5.933390158210148 -0.6885923645014607 -8.978614237108143
5.938717953990862 -0.7114735691070329 -8.916059324311028
5.9323200787162715 -0.7234423789896025 -8.853582643771041
5.918230668526698 -0.7333397793232455 -8.770196830614026
5.879453995947182 -0.7228714132764162 -8.658196950742987
5.851326954991641 -0.7380356210810226 -8.553721952033161
5.825050168478186 -0.7479934885383444 -8.476468990643085
5.799260508850502 -0.7493532217993408 -8.418645359411652
5.779984074174104 -0.7659594996859682 -8.365867665970143
5.760462665776006 -0.7878687202838572 -8.307008614212407
5.721877215754073 -0.8131687475284135 -8.21651059916256
5.681450127439627 -0.8508105007792417 -8.12124263538902
5.661640747413441 -0.8763047855802697 -8.072644282006259
5.6403356970494185 -0.8996751026028345 -8.025928747824992
5.603805406739209 -0.9253654198989083 -7.954320600663684
5.5659355239379575 -0.9514298590409931 -7.883600458908911
5.537229846367157 -0.9702816243769596 -7.832081148257379
5.494717374305691 -1.0049384052828372 -7.759501091536403
5.465669766032427 -1.0245804909892344 -7.713102224475876
5.432865107722719 -1.046819275728564 -7.663633848025314
5.3958075156557 -1.0721985953147555 -7.611279244713002
5.357076696529041 -1.0940364145311345 -7.561189471312459
5.3096499047306835 -1.121217792066211 -7.504197650606774
5.25461942048328 -1.1245905478894933 -7.439955193102709
5.206678691225418 -1.1463561889033045 -7.397523673294448
5.148300785651295 -1.1662115459490223 -7.353179499490493
5.101994626616463 -1.1782217928102805 -7.324124078199813
