349
-2.8239214327747364 -1.0338053301775896 -15.714279470936896
-2.8757548071148857 -1.0222544405064682 -15.716340366635881
-2.952574438651223 -1.0147729349611734 -15.719925682426252
-3.0068230756078345 -1.0071960637415864 -15.721834898431693
-3.1240411853249928 -0.9919477709358613 -15.726145159202966
-3.2152757996224794 -0.985396183951966 -15.730766989926844
-3.2806985243689315 -0.9814247518820991 -15.734128670585347
-3.3336189378971772 -0.9781074743545497 -15.737762001160133
-3.4210394995657447 -0.9669563242523813 -15.744226136579927
-3.4827776545232565 -0.9559515570869193 -15.749694807637601
-3.552952137668176 -0.9431654721537168 -15.756749178779108
-3.621466064937689 -0.9306971777221491 -15.76487790412335
-3.7007102223459416 -0.9155519748594421 -15.77643418227692
-3.772866815475359 -0.9029124817049616 -15.788801331410442
-3.851486123857126 -0.889056777500606 -15.804377943696887
-3.9233530710742697 -0.8755087835908906 -15.82125859346875
-3.9930592580300663 -0.8613946838097994 -15.839191251197631
-4.060987231038765 -0.8486670063581696 -15.85958899287501
-4.11901036320207 -0.8416283734534591 -15.878528035228511
-4.182841983969499 -0.8345892438727576 -15.899901595709936
-4.255924071863824 -0.8196901679845039 -15.925663036777747
-4.337742487249153 -0.8036614699687099 -15.955534703520856
-4.3994158606970295 -0.7886376941904183 -15.978931062932803
-4.475641061889156 -0.7700364765558223 -16.009273042280928
-4.5262997163818826 -0.7546097633340583 -16.03002984952438
-4.586332408468221 -0.7297314206425474 -16.05487631082672
-4.649191379698785 -0.7019522510911667 -16.081488023365903
-4.719695580585241 -0.6863555753946071 -16.114797893854313
-4.7870515216985146 -0.6694916081811815 -16.14794862146303
-4.8408769593210765 -0.6408456563716125 -16.174709083901504
-4.908631012286196 -0.601816731180145 -16.20756470856614
-4.961622300950479 -0.5445260883424516 -16.231779744626657
-5.001949964576014 -0.5013106193016668 -16.252154097553973
-5.071299124429685 -0.45953874409913964 -16.290763237644587
-5.128468402339744 -0.4064419720216612 -16.3230777068926
-5.177543189123675 -0.35570447849657216 -16.352553342894375
-5.208735702570254 -0.3092382680085224 -16.37098029717668
-5.243077218541398 -0.24715458334534612 -16.39187007426377
-5.279548365436914 -0.18919497712814848 -16.417091112552676
-5.301290596032902 -0.14280813526021308 -16.43209121567151
-5.334081464726128 -0.0669952081215246 -16.457826715854928
-5.407724991250412 0.045140615809922346 -16.52891004173228
-5.446343385923264 0.1374512111050381 -16.57257613978432
-5.462331680424934 0.18443287757564986 -16.59185845405505
-5.48178433302821 0.2559900058086335 -16.61929013682107
-5.499023579040727 0.32617517635990656 -16.64513498416248
-5.512344761387161 0.38048118974727907 -16.666042153432507
-5.534990394699286 0.451994389960227 -16.700660768315647
-5.572505588453422 0.514183302443046 -16.747789463802246
-5.615073684312513 0.5728523194205855 -16.80300559534291
-5.668554555740275 0.6061836475592417 -16.86592194201283
-5.708841556496226 0.6293423582249729 -16.915101661445977
-5.752467854292328 0.664196526092953 -16.972636501488562
-5.799131370211747 0.7046212023372311 -17.038258306497685
-5.8350513989924595 0.7224402391795544 -17.08661714212741
-5.88407792774687 0.7458216112905547 -17.15468406092225
-5.916639641012225 0.7775590550132956 -17.20756688928117
-5.9454978182750695 0.8118362574104181 -17.259358047652434
-5.9795755749310215 0.8484975094909502 -17.32171417955564
-6.001840629029445 0.8695842751286895 -17.362704758163478
-6.024768173242173 0.8890457353021104 -17.405594125645724
-6.0466196986750465 0.9091280724046504 -17.448524674567267
-6.066359587594977 0.9399843638243983 -17.495878603127604
-6.081269668796152 0.9829144547986852 -17.54437749691451
-6.081406611118452 1.0511381510343523 -17.588497360728123
-6.0956502442272535 1.1171365247089071 -17.65653935491699
-6.114219869347328 1.1619289424318924 -17.725996645068072
-6.123171307231736 1.1915269172661624 -17.767419231409832
-6.129717968320079 1.2273439313724135 -17.810972234335534
-6.135555908127759 1.2625938523683182 -17.854041008137806
-6.138186874713037 1.3195254109676313 -17.911121404370963
-6.130074474071615 1.378437574412809 -17.954320327747443
-6.13146275342461 1.4281441928056922 -18.008734715993114
-6.137993354521774 1.4629735017397725 -18.060382528548796
-6.142067334430057 1.4983382514328218 -18.10787043435166
-6.13636069966296 1.553876502931278 -18.159960648051698
-6.12426910069943 1.6099680471504645 -18.19914231167106
-6.114432730810713 1.671053954064867 -18.254330289792087
-6.10841850871108 1.7313241086793065 -18.319223298628483
-6.103396618853757 1.7777173635937287 -18.3685798692614
-6.096669637221157 1.8242897229711705 -18.418663821819507
-6.088982031916687 1.889228061074227 -18.49350890664281
-6.085711753444393 1.9324412065439651 -18.54936535279273
-6.082884487259075 1.9748828458501244 -18.606253760475347
-6.080679642087113 2.0162533146987043 -18.664810054589328
-6.077114714118068 2.0571481680676884 -18.720145020368335
-6.072318405509752 2.104389935869845 -18.782967452402257
-6.050223915966806 2.168355619632739 -18.838493032980388
-6.041355486255035 2.2076348270083788 -18.881105476478158
-6.033644817397194 2.2473132725101355 -18.933612233894074
-6.0283029795451055 2.2945564251229174 -19.00184608368295
-6.031771565368337 2.3283143311064567 -19.065746225470942
-6.024399711942171 2.3740226311258583 -19.12987945371066
-6.026847352243444 2.4184317932681383 -19.219513836348145
-6.024989376818675 2.4655544977920227 -19.293969226039252
-6.025187291351142 2.4928929343110813 -19.345696525983875
-6.012777328337891 2.533094879396277 -19.389109501621494
-5.984905472383269 2.576414330911577 -19.415295111393377
-5.952792353027255 2.6421648144305845 -19.4756636515878
-5.91535479602791 2.714434355826379 -19.541680157398336
-5.901783602682675 2.7418311271623104 -19.57088787424559
-5.876421592033233 2.779820858991915 -19.59570283531748
-5.817967707463866 2.852901428136839 -19.635776010996985
-5.780870235231893 2.912241869928284 -19.688458282453574
-5.751371948679702 2.9569497566765817 -19.72857254838569
-5.718143627860878 3.000343720970717 -19.762149318775887
-5.684138978954294 3.044437757825805 -19.796931601916135
-5.6477480076487145 3.0929098008090765 -19.83654391524227
-5.606285388551618 3.149854412119671 -19.88571727024327
-5.547202301935484 3.2292066412955123 -19.9528175750262
-5.509914358863639 3.2780662795783684 -19.995274752474636
-5.470725816066573 3.3230437297719115 -20.02557397285866
-5.435071723882405 3.363928029003673 -20.05401744812541
-5.394406180730118 3.417497511400203 -20.09958563034495
-5.356766233365917 3.464204106452798 -20.13874357951351
-5.317813821948804 3.5109904673663213 -20.17744534086038
-5.270884771123451 3.5689363194865047 -20.228679395122857
-5.232571422848141 3.609883297804034 -20.257933251898756
-5.201120725995059 3.6427977057795013 -20.279078564863045
-5.156920589831983 3.68718666831641 -20.309030899644988
-5.111634671439217 3.738013957959515 -20.348584034102757
-5.0808256812955985 3.771218039715242 -20.376892526832215
-5.040073341142956 3.8130371996183916 -20.40651913662112
-4.989621763364283 3.8614679135429446 -20.439790702023327
-4.943441395646368 3.90348226442811 -20.465573114075276
-4.907697188132703 3.93581297363599 -20.483629354688738
-4.866604633391156 3.9731068031862815 -20.505667854333375
-4.809769040367945 4.025937679652754 -20.54594375455052
-4.76888926387515 4.063470147032108 -20.57466776911072
-4.713220061802098 4.1126262211892035 -20.609604002044126
-4.6641826037756795 4.1545402228241315 -20.64013893411044
-4.6165553845272145 4.194864975048279 -20.67294697476761
-4.556292318517802 4.245622355785198 -20.71902834365379
-4.5083839308442535 4.284581179144047 -20.755612795729967
-4.435630547223297 4.3409190405180205 -20.80876969320289
-4.4133967635495 4.357478645656673 -20.824734187600598
-4.375441399921912 4.38520579103956 -20.852379083510073
-4.340162636742604 4.410872998358036 -20.88349474642396
-4.304271570473916 4.435731126080565 -20.91956571985297
-4.233573668152809 4.480858848107056 -20.95937064899049
-4.134843464602547 4.5382019357619345 -21.058945085569274
-4.098759515344134 4.5566422076542255 -21.099953424142843
-4.06103437124764 4.573968028275666 -21.137513747599836
-4.021544147730718 4.5895703198447775 -21.1763509817545
-3.968521071480712 4.608208580450093 -21.22571352202423
-3.90376892708111 4.627666701816882 -21.27306236147358
-3.863332582641948 4.6375352358082935 -21.301167318347897
-3.821577115788939 4.646714281278892 -21.32809161562279
-3.762291892014635 4.654216160246888 -21.379418218896962
-3.7069361123737607 4.659411398831169 -21.420869987290057
-3.6402065204589347 4.66284521698542 -21.468529919223467
-3.586536473175836 4.662263951116128 -21.508158061609077
-3.5616520572478 4.660976880035317 -21.52677455163953
-3.534765648922443 4.659114935728269 -21.548560046694533
-3.5006101465641395 4.6544462896160566 -21.57620285445808
-3.4572073543634723 4.648512706930794 -21.611328432745946
-3.397592861315781 4.639364023320596 -21.656756742806458
-3.3408561524557596 4.628033405958062 -21.700152567255905
-3.2923120776414985 4.6115028517735706 -21.75027410748123
-3.251080264673938 4.59480338692443 -21.794108853170847
-3.156123992567779 4.574788206043541 -21.83496561067479
-3.0882342997050065 4.557739008866547 -21.865258890350294
-3.0279015728007614 4.540587995058591 -21.892578308784923
-2.964996622111662 4.518729577459355 -21.924416689892116
-2.919751268066338 4.497660064812097 -21.95578086290604
-2.8499904447763393 4.463757534169293 -22.004052666115467
-2.791560806647259 4.434002319274108 -22.04211519180053
-2.756772068985235 4.412269446022253 -22.071009259025868
-2.7220579549121533 4.371793373935143 -22.136308471254843
-2.7031375050497024 4.342937068562376 -22.184095107471045
-2.665293988703006 4.298693867239535 -22.2490424449028
-2.591596997808119 4.247984768119169 -22.299159207226772
-2.518491848384822 4.195735359138024 -22.340226722362942
-2.4714846209099575 4.147666728452138 -22.38126692204573
-2.442547619920239 4.084451545186226 -22.44286351692053
-2.3764827582769117 4.006704514370005 -22.4822665927554
-2.3337742128678043 3.9190385957322773 -22.535468652510012
-2.2944641406832336 3.8546354162473246 -22.5642512095526
-2.280434218808389 3.781018555155292 -22.60930021185232
-2.248392979435658 3.6942921682117333 -22.647168758201776
-2.21668162282824 3.6015485025940386 -22.683782825569853
-2.1979548950787207 3.5548350896052563 -22.69894313580979
-2.1771759252784415 3.4762498087599827 -22.728226449695672
-2.1606571340933733 3.4001764184586794 -22.756374612920485
-2.1220927504165124 3.308479910505026 -22.77742569981806
-2.100295119573339 3.255024199201066 -22.789009510479133
-2.0760401759829508 3.175836897292868 -22.81018080994659
-2.0505723672294476 3.101179218098153 -22.828252906910176
-2.0167423830507083 2.9797505725850115 -22.86079713533718
-1.9987913945993474 2.9022596542476986 -22.882302647547494
-1.9802651016600554 2.839475390309241 -22.896370445261798
-1.9635235874406642 2.779938870806679 -22.907602786778167
-1.930862940800275 2.688028815549089 -22.917360372052514
-1.9102471754838148 2.6019432255559627 -22.928504814726864
-1.8950721667549881 2.540861676689561 -22.93461966556442
-1.8715350037230414 2.469388853873026 -22.936759069571178
-1.8495211991554446 2.4029753434040453 -22.936966323392323
-1.8241233579516345 2.338079923023084 -22.93349610770091
-1.8003887062448 2.272348494879081 -22.93068457740997
-1.783404735791082 2.2136663885109362 -22.929778754542987
-1.7647828631143703 2.1350708997240044 -22.93031390780572
-1.7380288380598967 2.0011461340458396 -22.930398253442267
-1.6679525195878895 1.8969863285131703 -22.90296659492252
-1.6142116746002861 1.8377974931447827 -22.87815698075768
-1.5799942932233104 1.7748387057110107 -22.863112389464565
-1.5046387503462417 1.6805751967863924 -22.829078521137408
-1.4651692641314156 1.614450826670945 -22.814326916932025
-1.4377347300728525 1.5680333751611049 -22.805390154134482
-1.4056116034189106 1.500184405279491 -22.798766115826506
-1.3608902266630556 1.4109523678437117 -22.790836870687148
-1.3300057555189386 1.3382427395992924 -22.789025779387234
-1.3073104335692303 1.2722328057689747 -22.78917212567975
-1.2845323666573314 1.2051583032701088 -22.791512805819004
-1.261129465769845 1.1443218662449686 -22.791519722389964
-1.2360893246358666 1.083075698950427 -22.790520791946314
-1.2117917698119987 1.0231126527729983 -22.789615596198654
-1.193103408355533 0.9676612398109044 -22.78949278402905
-1.1753934481558244 0.9086929715249685 -22.78882846666452
-1.1499855231827334 0.8227921658253055 -22.78795885561334
-1.135976237555936 0.7713302231950194 -22.78642345085179
-1.1181320694392058 0.7084629511886014 -22.7821265184831
-1.1006864398607064 0.6359998566208545 -22.777015899676417
-1.0798409037043901 0.5320978713966464 -22.767114720007406
-1.0461973121579902 0.4534157832433421 -22.743354401963295
-1.0158131764845135 0.4072068215306561 -22.71941592178366
-0.9563551862864677 0.3382019931952731 -22.673099258866543
-0.9395104502207781 0.29494040271591015 -22.642978950023398
-0.9250431773447285 0.2577843782344973 -22.617109374176486
-0.8865255757422947 0.2487874668326724 -22.575170956614052
-0.8187529013218884 0.22479536246596443 -22.54866128381491
-0.7624928036444867 0.20805639370410156 -22.501551438914884
-0.687969744967311 0.1802032458623979 -22.44640911981818
-0.6058914594000122 0.15151687328028118 -22.382016008148415
-0.5588522746838647 0.12636418644286906 -22.332508047407046
-0.5076778013000427 0.10172900214685998 -22.28168139813524
-0.4560448759055433 0.08374754276612184 -22.23139439649026
-0.4028919086891627 0.06981113499789937 -22.184024418043652
-0.34686972762452206 0.05334341235776363 -22.13019803569612
-0.30479176030901045 0.039572986734590865 -22.085364602487566
-0.25729140635385384 0.025078504773168087 -22.033493176903328
-0.19989333005420407 0.009140634838382011 -21.96913568143987
-0.16792180133252788 -0.011973661967176641 -21.923655111513042
-0.12191156531199332 -0.04781150676648438 -21.848890283395807
-0.07982062058758621 -0.09388989486813393 -21.76894185283827
-0.05060169110405455 -0.12759561043128298 -21.704245122852818
-0.040197655379268005 -0.1548711690269069 -21.649656776518725
-0.04162881066557733 -0.1840629811630834 -21.587309765953435
-0.04048728445424232 -0.2195175820544366 -21.5233799107098
-0.04624142116736629 -0.272983103222469 -21.433336682726605
-0.0492539858607548 -0.3252734051674342 -21.34837705779189
-0.04024366018953285 -0.37120618455705734 -21.27067447057398
-0.03492012123828414 -0.405133489477951 -21.217976608384642
-0.03996695078624346 -0.4523373368838086 -21.15191169857116
-0.043321087352581555 -0.5266610831107099 -21.028227582563428
-0.04275227217533284 -0.5824319088186865 -20.932081719332814
-0.04831244186796524 -0.6310900741204073 -20.858511729314053
-0.05608823109086969 -0.6938279762874069 -20.766857112632987
-0.09018429701153452 -0.767238316459627 -20.625797987546264
-0.13250095135710738 -0.8635787928216192 -20.48582206461858
-0.15054979495924292 -0.999754523523422 -20.31676112185952
-0.1466826507473875 -1.0669775115329985 -20.222455520100777
-0.14172492782853507 -1.1279056577349416 -20.144444997502248
-0.15325949548885132 -1.1713823138147255 -20.081236192174327
-0.1670587782585813 -1.2167552223808242 -20.014998781871505
-0.14651908311648243 -1.2414296909341604 -19.970314810686638
-0.1462095028573136 -1.2985843542660696 -19.90260140420425
-0.14517162080659962 -1.3463415379778823 -19.838787492305897
-0.17420909096804071 -1.3865498905382079 -19.7877690914883
-0.1944952280606469 -1.449027359156837 -19.722732444253843
-0.2344634287340004 -1.5005098007559552 -19.654147369841514
-0.17824816314966418 -1.462614505251728 -19.69192907783693
-0.13580564231753534 -1.4981081941023338 -19.637323006264058
-0.0764198122315658 -1.5458190632163828 -19.62187336013114
-0.02778750967474708 -1.5656512780632659 -19.649824544005526
0.015320471654366452 -1.577679353170508 -19.68035589766536
-0.023976896946601878 -1.609062820751306 -19.647469683502653
-0.06017688409562294 -1.7022405397113836 -19.600475096542795
-0.10716530593327467 -1.7384152492916625 -19.573783065701218
-0.12941262293423894 -1.7633251233853346 -19.52845032944264
-0.1717025765421092 -1.8117630973025418 -19.52457087091719
-0.1605205866079047 -1.897463733600443 -19.587614450152476
-0.1871727325728998 -1.9437662100167865 -19.527676789488396
-0.22310114115833746 -1.99272377699247 -19.431419032894706
-0.24127941565306332 -2.017772659437477 -19.388903978396556
-0.2754927478931968 -2.0663424208427896 -19.342924703725807
-0.2934254621616803 -2.101167349473986 -19.295473058684575
-0.3171660637874789 -2.1200381408610545 -19.231941857729645
-0.33612116847373774 -2.1098899996807576 -19.155343234164462
-0.3468872322812151 -2.090779059597626 -19.103106390085085
-0.35241215033642237 -2.0343355311327906 -19.030621411308367
-0.3759488377814597 -2.0317211857242095 -18.96902316117573
-0.41997699726380877 -2.050423523778302 -18.879136637564834
-0.4600928782903775 -2.0958763133263547 -18.817337755068365
-0.49171376226827257 -2.1390271209308116 -18.772480454706482
-0.5169611551038951 -2.16387733504751 -18.733539558455483
-0.5353560139515381 -2.1617088355865874 -18.686984633076456
-0.5611615616989611 -2.183881099876131 -18.645653015199645
-0.5867959640247056 -2.1978238972050947 -18.597997885306015
-0.6105237884812331 -2.198836527113416 -18.549208526583573
-0.6418457941583251 -2.2002325785501684 -18.482357862159883
-0.6855034312377188 -2.1752265023235244 -18.3815012529443
-0.7182987969299022 -2.1483033735036177 -18.302213678247476
-0.7521526298552044 -2.118683743534965 -18.21519453588391
-0.7755378859156814 -2.083165039305017 -18.14767817346919
-0.8001668049647288 -2.0650087913497845 -18.08276869710915
-0.8192666264555044 -2.056632927595521 -18.032541398330114
-0.860686361932492 -2.0062136285974557 -17.916689022909903
-0.880037994087749 -1.9817329552724157 -17.862722680521514
-0.9104505317073268 -1.9318494524889445 -17.76935129600524
-0.9392423498460445 -1.897771314542365 -17.68836394875238
-0.9614819667311865 -1.871223949764451 -17.62598317000126
-0.9839674423495051 -1.8453829053694506 -17.563953895814624
-1.006802373315023 -1.8204390100528351 -17.502382157413788
-1.0286390208177727 -1.7927583885137028 -17.44177006590771
-1.0503078244667454 -1.764652579268169 -17.38206751489585
-1.0714062881204247 -1.735157479810818 -17.323683214848195
-1.092861197886949 -1.7078048235931578 -17.26608901852139
-1.1254852039892984 -1.666078251194566 -17.176848936642372
-1.1499076401137784 -1.6216169617930227 -17.10907865064383
-1.1713212767011745 -1.5929772215042524 -17.052449003647688
-1.2014652813194295 -1.5647348653972821 -16.980566672098785
-1.232474022944684 -1.5388347931459487 -16.90893678278321
-1.2672889334048414 -1.5103530182058218 -16.829044940729407
-1.2981326015048118 -1.4897419725353733 -16.75997847836732
-1.318830449171848 -1.473872352204175 -16.712001297653906
-1.3460535960204874 -1.448207844562967 -16.64667118393636
-1.3825934668433806 -1.4265274444011042 -16.566340595704073
-1.4088790326260734 -1.418428151003991 -16.51662154495087
-1.4368986829940023 -1.4119004355790665 -16.464656767967398
-1.4829586322081154 -1.387957962289159 -16.383187278490173
-1.545607450077367 -1.3726895253072569 -16.297993861126265
-1.5861481386903187 -1.3606001533289203 -16.2503854287785
-1.6246140406978904 -1.3436917042207666 -16.206707763486282
-1.6682960434453407 -1.321119958094563 -16.160228613462653
-1.7475247490438262 -1.2872889012344217 -16.089128763893605
-1.8617128600767396 -1.2584029277578928 -16.003167487104527
-1.9317937120265019 -1.2317136785381086 -15.955384628977496
-1.9987774903636957 -1.2099588509286654 -15.91368525348725
-2.052022778099845 -1.198997703619619 -15.882691550674595
-2.134125166809377 -1.175011077200583 -15.838431176937712
-2.2031710489830347 -1.1602359613643654 -15.80494246268333
-2.264802551837718 -1.150411754921288 -15.777892294547927
-2.3130710167388466 -1.1369140254282593 -15.758635063530788
-2.358034020921669 -1.1201162535104456 -15.742156505203669
-2.4345577256910422 -1.092808680227723 -15.719744184361877
-2.541599042410864 -1.0831688915671005 -15.70599388240347
-2.608858089844216 -1.0650616280519551 -15.704865492012479
-2.6853445542638568 -1.056323955702872 -15.7073910009076
-2.763907751065833 -1.0472959085792872 -15.710438807851473
