303
16.141673421178034 -7.660964826354614 9.97681035602037
16.096423844171973 -7.682568804994592 9.97832141936394
16.033624624401273 -7.712834060711067 9.98287684186062
15.971118133950897 -7.746023625041664 9.98956075214662
15.904176531141662 -7.779313389053071 10.001314722377238
15.849452976214794 -7.809333830669011 10.014007864865537
15.79697773666207 -7.84070389529438 10.031051792035871
15.75230759603515 -7.874239498388237 10.04917551333007
15.70667058200959 -7.911118829129554 10.071222064515648
15.661120963445448 -7.943888409892283 10.098087316810172
15.61802401300129 -7.975229721785793 10.126437203933701
15.563140085833556 -8.00886191076452 10.166346242347618
15.503545538034928 -8.030964763180439 10.213120263678118
15.435821326732617 -8.041881158848053 10.268025612441516
15.38150530768275 -8.049966813411338 10.313706168733184
15.343531823805884 -8.049922446987525 10.346882304295466
15.271486653925491 -8.048402586095204 10.413969765977214
15.200912302856858 -8.03833300917648 10.484673935193218
15.15564018564771 -8.02522579292126 10.532881920274612
15.121008179942862 -8.013559187941429 10.5730445357285
15.064574260101244 -7.992781294893292 10.644116296926722
15.030204248526813 -7.981977706633479 10.692600906643069
14.989453611072753 -7.97048956221888 10.75751149292013
14.95377845849878 -7.9580602896292145 10.82021272789473
14.931414586013961 -7.943744991070577 10.863795012108582
14.909780300433525 -7.930084630980732 10.908720827507164
14.87837711333236 -7.908054312355913 10.98466211012698
14.853171195150004 -7.871152511182128 11.051890244933329
14.83708246642601 -7.846367269511994 11.102121797311035
14.82178804697112 -7.817395141121306 11.157519380148194
14.803526095778318 -7.768250605541168 11.232734917490546
14.789827141742565 -7.728198465870431 11.298150980945099
14.778233017253111 -7.692657096051886 11.35951722463972
14.769279970482085 -7.656493807567073 11.419455183305953
14.75790620694263 -7.612236877358047 11.50363020046678
14.746970457237182 -7.569849950149141 11.599955093671724
14.738911056494217 -7.525527330125632 11.698262635549753
14.735311936019965 -7.500765318238057 11.750100102875905
14.73094701424986 -7.470096362544845 11.811998031472442
14.727832558496788 -7.442797467249235 11.875131588470822
14.725368782779846 -7.41339539530374 11.934713869518681
14.723136724827421 -7.375015053661189 12.015002656486196
14.7212406216648 -7.356130181125297 12.069615711114619
14.721999803858958 -7.332575749671508 12.135721144725483
14.722502703512422 -7.311027608476747 12.202557666985768
14.724185021450756 -7.279928400028446 12.296045704842857
14.726996552537814 -7.250769743325827 12.382045888938691
14.729383735006934 -7.231309696864497 12.436767129173173
14.731949556982215 -7.205026482681079 12.488170896200497
14.732980990141574 -7.179152715149894 12.531002100631408
14.735788349620595 -7.139096913966708 12.594556956584128
14.739826484166946 -7.105978228668154 12.657397164523765
14.744878260889514 -7.064822054745198 12.73646470305076
14.74884492092361 -7.0398313507048105 12.782621198852691
14.755267284236917 -7.013651285474917 12.84364152336309
14.761794765904272 -6.990407675030011 12.902972457267122
14.768448833502282 -6.963017556030973 12.962063362478538
14.775015491744666 -6.937052778895703 13.014669331763862
14.783414452258908 -6.917364348646285 13.068661560429238
14.791725647685482 -6.8841057468067035 13.130647429028446
14.803624611399107 -6.859113050146021 13.20453294243039
14.812512949003292 -6.830410398920543 13.258806947169901
14.824618075083858 -6.803125300884525 13.325525735091613
14.83480726887667 -6.789368568026789 13.376256034813764
14.854002200022451 -6.762125318803474 13.46785469580885
14.868122358902816 -6.741538186245216 13.531085403895965
14.879607709214854 -6.724682968705831 13.582079206539781
14.904588401347999 -6.697899926950813 13.683320268187671
14.91947361251886 -6.692792552386495 13.736613730433419
14.93574380286658 -6.685832960746506 13.795550359638273
14.952519600828882 -6.652441851250186 13.861295311963378
14.9681000420151 -6.648993069494833 13.91021276769888
14.982862251423152 -6.636574888794405 13.958973602720608
15.00422002896966 -6.616329417929231 14.027041995133889
15.020417489447343 -6.604140109936008 14.078281384658325
15.046732695059623 -6.604414577404608 14.15160355275713
15.07154536277733 -6.5977317845775945 14.219704394560047
15.094892459372762 -6.5913038974768785 14.280823713048104
15.123847761918265 -6.58482321271746 14.352731925282821
15.144840908222827 -6.57542841983264 14.403817049833467
15.167300239455118 -6.56864985781474 14.458532100844664
15.19068883205449 -6.559944352429363 14.511443830336887
15.217498098872499 -6.547047423199716 14.571208370290716
15.243630066587398 -6.537732400049103 14.625496151412403
15.273188128308496 -6.525422283813039 14.685756433816785
15.318922189656885 -6.492098105450722 14.778452101451975
15.351693747538372 -6.482602473533969 14.83260691371719
15.407841447512608 -6.453040164229941 14.925214114577635
15.436206775796489 -6.447350672988158 14.968206992715292
15.472417356435358 -6.440647665292644 15.0203004606045
15.502028190976997 -6.435166052445903 15.062899903853221
15.55805347525063 -6.415169642952514 15.137406218150744
15.619060722622985 -6.390199269444745 15.213365938726238
15.679644535073674 -6.3939094491479 15.285644302066316
15.71884253793664 -6.387854999612218 15.32973455929271
15.756187548550761 -6.377832209172522 15.36970700146173
15.801183999927991 -6.361260771502609 15.414530122171755
15.846166721527702 -6.391028820781818 15.468577098643966
15.908299704362294 -6.38059725128865 15.52570054471352
15.961613701331832 -6.404978285376206 15.582330215870172
16.012541948574235 -6.432375280121498 15.637930109753317
16.052145112739 -6.450923165938337 15.67708807247552
16.119213500489284 -6.449391388411404 15.731433138549683
16.190583761485694 -6.445794147573205 15.786951903138629
16.254502923091355 -6.458676720996323 15.83813242528337
16.30387177092106 -6.468490651851605 15.876006054591745
16.352326661718365 -6.4817484136343735 15.91224337613803
16.4002562934893 -6.5151633509851585 15.952077785194891
16.449836709948293 -6.540398634679892 15.988090966827482
16.503386669889395 -6.561892900622009 16.023683218904253
16.55259793803576 -6.576765476504363 16.053957515373796
16.605238539876648 -6.5956995484166665 16.085553718661075
16.69527411305129 -6.627262621950931 16.135300977988635
16.74859024380455 -6.674495630332737 16.169086800555544
16.807133725164093 -6.711469561512763 16.200258877809716
16.853174794575246 -6.762879286322293 16.22343862452142
16.887822058544863 -6.807109202043647 16.24282053238876
16.93545578113421 -6.861015150007483 16.26527960016673
16.98113994324531 -6.917562617482736 16.285066757927726
17.025278634739983 -6.963624527625844 16.30279932826353
17.09177031014745 -7.004316579780285 16.327833757763702
17.174532337398457 -7.038569067272524 16.35842591673378
17.236482935989205 -7.061759880844474 16.380639690920216
17.307906677954126 -7.086899569520185 16.405845747976368
17.354184707741048 -7.105109703280113 16.421252003756933
17.4245484911394 -7.138198269570109 16.44437916407786
17.483758662582925 -7.169574732914021 16.462366008880068
17.540254113210413 -7.197592275633149 16.479437032510393
17.61277722698482 -7.231021953938224 16.501218665524124
17.667523931578312 -7.255894831971326 16.517478029115583
17.723845249739156 -7.284053923257091 16.533177722224384
17.769650557887807 -7.305289199514461 16.54628283528317
17.838603419653516 -7.336334271883837 16.565368732542264
17.9131609802318 -7.366308691744076 16.58447751802736
17.955276196797932 -7.3922471592721894 16.59514803850602
18.035048958118153 -7.423714313897889 16.613949406475818
18.08596338032557 -7.464179840676904 16.624086185008903
18.151974155668558 -7.531080724026243 16.633581794355855
18.185918576019557 -7.568422730222567 16.637642885839348
18.22387101283749 -7.6075050697979485 16.64170950313316
18.31697117179468 -7.66889624460408 16.656025301370644
18.37217657604946 -7.717330716939207 16.661462816098982
18.4321978244884 -7.769883883479228 16.666048573014997
18.468358609889144 -7.807679709165202 16.667511727383317
18.516935647010968 -7.858142993073661 16.668362717436114
18.57190662142157 -7.903422364868175 16.6693202519537
18.626538706209484 -7.946554159908218 16.671134978130823
18.679331142629113 -7.9900876376190455 16.67001614258355
18.732229973076013 -8.03204999667485 16.667031307693147
18.791392152964416 -8.075433649485298 16.66315908049628
18.8318254717412 -8.109643669428415 16.65846499721578
18.880716945663583 -8.16347935816879 16.648513607675817
18.91662684289481 -8.208982191020755 16.637823519173153
18.971047323706205 -8.273760205203825 16.6210653106063
19.009392450030898 -8.309550231281433 16.608767322389134
19.06028911954545 -8.35692326778302 16.59153328566169
19.105856187035098 -8.392580267887698 16.576074614968913
19.139019257322634 -8.42843217240267 16.5615967464226
19.199531825637518 -8.474105152614088 16.538622152317817
19.254478198732244 -8.509249244060552 16.517094621693644
19.335308654774806 -8.525736199248346 16.494156596589402
19.392149747494816 -8.549565485931618 16.472926295868383
19.459287307992255 -8.568509558114833 16.447260065437842
19.520007338857333 -8.60246751979981 16.41595614009877
19.57767922491201 -8.66966646315273 16.374343955038412
19.646079372630464 -8.72234929529645 16.33016599894529
19.733956967025374 -8.754003512655489 16.27773835026054
19.823518565616677 -8.766429281379015 16.22608218792751
19.88245731008709 -8.781148437600866 16.187342440639682
19.928686256587667 -8.792499422760686 16.15406514351269
19.988482227841555 -8.811489767550116 16.106105368726823
20.026894333358957 -8.823659382174913 16.07513738517863
20.091643954135698 -8.833478449823792 16.019048547169085
20.141742467471445 -8.841516628773377 15.973077922751568
20.21092818132841 -8.847380685479648 15.906721371479726
20.2652976764213 -8.86376176545893 15.845332527203038
20.309539401565637 -8.880767159668764 15.790123917010991
20.340336019344313 -8.891601212495166 15.749261526126617
20.381091205633638 -8.899686094071177 15.696272870518435
20.442247152631623 -8.906796433886267 15.614849959717336
20.482573233860617 -8.915005377475604 15.555347888049518
20.528971124543105 -8.929456313024243 15.481609593940721
20.574009468695984 -8.942468362786073 15.406854591278627
20.611616605840116 -8.961123172546436 15.336312723567744
20.637285227073107 -8.973680135155387 15.286456906492205
20.667356181801296 -8.97535051424216 15.234438176548537
20.717351272140434 -8.965990839090402 15.15088222652668
20.743957452885727 -8.97010044203775 15.096841262972113
20.78843279128502 -8.997794783059874 14.991525735741831
20.81519782406384 -8.980534844016189 14.946481529732782
20.85512521127304 -8.9500947469196 14.882039798242204
20.90240373081011 -8.91973424213726 14.795359292712355
20.9472668245573 -8.861350531874866 14.732595172535284
20.992249913396492 -8.817950609751485 14.650294879053241
21.015986232471676 -8.810251266514191 14.585759950124512
21.039625638277307 -8.798511616398907 14.52133427843415
21.06038024073281 -8.77541118216177 14.471970290790797
21.075161634575114 -8.787242058803105 14.402393975499212
21.099206708385967 -8.767752290934588 14.322569899033468
21.111873054550546 -8.769392551486739 14.25068997173529
21.121989329403387 -8.768290192764725 14.18664381633755
21.13046159334243 -8.765842437329923 14.12879231209579
21.14558097882345 -8.729034161829203 14.042119515121634
21.155980645157772 -8.689248576910845 13.96949860028402
21.16211417054468 -8.657270177701204 13.91998501189818
21.16548453010478 -8.630015009006605 13.866776378099544
21.16817102990968 -8.597768495239652 13.8222932134642
21.17066815732142 -8.553161092665519 13.768813870861347
21.171869088190217 -8.503777864919247 13.712320921815909
21.171527487650774 -8.446354438549209 13.649884714581976
21.167330379892725 -8.418136104774689 13.60518703543093
21.15647971285265 -8.38010242365826 13.528063157910836
21.147943205358207 -8.35605714774971 13.47736919531971
21.13343784883613 -8.334540220017153 13.410826601195254
21.119507558709802 -8.322339503099906 13.354653394860204
21.098442576066493 -8.310604958616267 13.280439587442235
21.06982541082726 -8.290797257640424 13.18680465658084
21.045887194696146 -8.289756216785566 13.119438063030586
21.029568668826116 -8.278455274816857 13.073225745012891
21.00187721454693 -8.249295646660782 12.9984617302356
20.965720161905406 -8.22357922815822 12.909989951022048
20.934431136106213 -8.200762343947801 12.838218116794007
20.906947741768978 -8.177706353150704 12.775844832653831
20.869291924364028 -8.159802713837177 12.70284543272339
20.845266848911898 -8.137555147670138 12.656367666712178
20.81322979604266 -8.111854816235281 12.596612037943736
20.76910553594617 -8.091338961772049 12.5199190656195
20.74286616746142 -8.078947714710795 12.476327374382226
20.7010271356518 -8.064120313468653 12.410008778350996
20.667422545505378 -8.049594377719556 12.358576268755016
20.63268175833483 -8.015279026471262 12.307496357056447
20.604493261878694 -7.98876659084422 12.267983104648241
20.559897920100216 -7.957088800125982 12.210299939905774
20.517372705642533 -7.931264079038753 12.15963799178703
20.48137579834894 -7.913220759183505 12.11797621544775
20.441354570036495 -7.90157301790391 12.075063917906991
20.370090629515598 -7.882650203789929 12.002267766520148
20.327852528717997 -7.865506666152646 11.960582627618788
20.287311190240775 -7.8273637316270275 11.926482179182877
20.237960108230254 -7.770865759627538 11.88733555093945
20.18798909739901 -7.728736235086398 11.845777272679811
20.150324511203017 -7.696178793680378 11.816143319923196
20.088408989234672 -7.650480590320888 11.768627803437006
20.041052534172916 -7.616549523410671 11.733932957579942
19.98483928938222 -7.573197790044287 11.692371581797364
19.94952823715018 -7.5472732310037065 11.667549326695745
19.913618937753203 -7.522051134770609 11.643061445292862
19.877343960511766 -7.495902421628173 11.617229739475082
19.79905878456319 -7.455704067123937 11.56145892549264
19.735653071678307 -7.427018741968792 11.517888847149258
19.67280659169242 -7.400912742181948 11.473426873758026
19.574604392885366 -7.378464547205297 11.405688415417263
19.499172017209155 -7.3361660066836185 11.356366621851485
19.426320522944007 -7.303739688779 11.30691256608543
19.37331892602628 -7.279638587484889 11.27140499460165
19.327662395940166 -7.260825227706552 11.241362629847291
19.255152357797115 -7.214840248720403 11.194468860448612
19.178336362699852 -7.159210137008771 11.144446953451855
19.123494870844322 -7.149889975768673 11.106565792212244
19.067939910694452 -7.139199582556857 11.066349551257595
18.991418495606144 -7.117693096034919 11.01015983997788
18.916912096115126 -7.098574049938669 10.954529588129613
18.860092231899852 -7.0789117159113895 10.904654923370838
18.81389064435684 -7.087202052914992 10.86792830405571
18.741430023130306 -7.096728304835743 10.804052084820047
18.672449819431755 -7.110572622348156 10.740521792856981
18.62276351725067 -7.1193406705710025 10.693556108264424
18.57650062882527 -7.126390431634504 10.64919189666605
18.51827356443783 -7.135629925399766 10.592982153163284
18.473086238771245 -7.140798152183719 10.550629262119575
18.410741324745732 -7.153202116235713 10.493533819529773
18.360926296371687 -7.171371968970088 10.45388296278362
18.31760060752966 -7.187579799193273 10.42076619145137
18.243287994255603 -7.200038326905738 10.370712023975315
18.170636338168954 -7.219194563939046 10.329388270726145
18.09210143985235 -7.231522593897012 10.29059474570169
18.00783040242845 -7.2364141699441 10.254223158133524
17.92515962798362 -7.232443073211669 10.22244818044189
17.847197020214875 -7.231591197491003 10.196920555203803
17.742405305739016 -7.208159285349307 10.165363239730873
17.686045581923334 -7.205528006182486 10.150193998006522
17.619394288230232 -7.203207146986383 10.134251858269234
17.550703336389223 -7.190705486472648 10.117739836904473
17.470614419848395 -7.20272451553731 10.103443889095583
17.39873081540791 -7.203516918562774 10.090291082655249
17.307337594570093 -7.189511339640941 10.07439814833684
17.2537492547952 -7.190588301784816 10.0658525238399
17.160866773909028 -7.1867753423231715 10.05295680469822
17.082833943905573 -7.20762462791058 10.043410099313473
17.008314305682614 -7.222576845020859 10.034969144205874
16.934443355015755 -7.239088531474031 10.02705891549978
16.8733412541903 -7.2565520128590695 10.02119186886112
16.80908454522264 -7.289445898926016 10.014989271244147
16.764700735516676 -7.320559279711961 10.01058849274833
16.722101387894813 -7.351282711560902 10.006920550929578
16.65287800893201 -7.395721216683116 10.00074305397257
16.600761073169235 -7.421793839943485 9.996377501871834
16.526398739179683 -7.460384958639458 9.990630092500595
16.45807427334183 -7.497625776237189 9.985757050947846
16.389586326932235 -7.534448542031099 9.98150603766502
16.340214560706784 -7.556617409317139 9.97926095352754
16.241578870133864 -7.602184141850616 9.976313923756994
16.197072025106525 -7.628334398764916 9.976144410197879
