457
-27.070961152063433 -7.420908187765219 0.3149153231397612
-27.072281491220906 -7.453636693069381 0.25501339749408913
-27.073146086812038 -7.484816594739696 0.20790734160849844
-27.07410750462386 -7.531691300731934 0.15053178945098367
-27.073842580243365 -7.5666731272219465 0.1063794031985843
-27.07150820315207 -7.608570604234899 0.04764523073495397
-27.067733737149226 -7.642386389796924 -0.006022269855929352
-27.061044691474173 -7.6826061885972035 -0.07397552965812615
-27.051649381499303 -7.72112382791944 -0.14638078980337887
-27.04217760515531 -7.761252792260764 -0.2058867497794985
-27.032521958089916 -7.797297258362949 -0.25797755001992684
-27.01940371149479 -7.838830369001586 -0.31894475023955593
-27.004781992546604 -7.878503698684698 -0.37811603166081476
-26.994042097879472 -7.91127097269891 -0.41735725471516893
-26.980613552170773 -7.9479971252980555 -0.4619025565178614
-26.96063195212004 -7.9934871418418485 -0.5235327758368129
-26.937337324025414 -8.041705055907151 -0.58944550871938
-26.919877387414942 -8.076270377374456 -0.6346710412307264
-26.904032727922967 -8.102148420345092 -0.6744934112777621
-26.87401469028339 -8.146605267674868 -0.7444508621163806
-26.84199977363604 -8.183968639884377 -0.8164483467098007
-26.814825122594264 -8.215080156139344 -0.8737026350183559
-26.791267867447296 -8.24499272512237 -0.9196909412781871
-26.742413552091286 -8.31022782373546 -1.0063796398577143
-26.714322998917396 -8.340481235012708 -1.0549583385692323
-26.6840712919805 -8.368608939604854 -1.1065499928598426
-26.635162775356783 -8.412471730070838 -1.1875484930454405
-26.580827715478314 -8.459515859956793 -1.274156250892692
-26.53332150834656 -8.500381696533555 -1.3479986276053806
-26.490079677568588 -8.5375254269211 -1.413406579517428
-26.454745262657262 -8.56991003417386 -1.4652050339506575
-26.411789982744345 -8.616502135048185 -1.5246341235243541
-26.375697222540083 -8.659063130667866 -1.5722566742556516
-26.341543730395784 -8.711084473457102 -1.6118039222214442
-26.29686496469421 -8.787778772839372 -1.6589669258624191
-26.256559017126612 -8.852358686094014 -1.7022073084765879
-26.226738315288003 -8.902938443191346 -1.734021945964514
-26.190031945456056 -8.956497558860734 -1.7733829163133015
-26.147613416222825 -9.01779454917478 -1.820630877760287
-26.09694860327015 -9.099740334974598 -1.8715829663932757
-26.071313504083676 -9.141066313690441 -1.897920972934359
-26.033426386730135 -9.206418869239055 -1.9336265601973714
-26.003170529817268 -9.257797578736767 -1.9629178645748535
-25.972484632970577 -9.309757309628448 -1.9927739802687112
-25.942763502157163 -9.361909064930256 -2.021581792700104
-25.912518614419135 -9.411708425552288 -2.050595909417382
-25.883005366915405 -9.458643422836705 -2.080861374994309
-25.853941539006087 -9.50256231899257 -2.111898307779663
-25.81504831775169 -9.558197156863596 -2.156157558381799
-25.75755383831033 -9.639252569496637 -2.227877945435596
-25.726202338390955 -9.686094737885998 -2.2629351892968064
-25.694223191470442 -9.744668836056402 -2.3009280199640365
-25.668646233666813 -9.793900809681524 -2.331984027916457
-25.642152716815474 -9.843316375641972 -2.3670688586125443
-25.62019688624479 -9.895802683159602 -2.393283177500404
-25.601812799803014 -9.944099514478879 -2.4156367290294822
-25.576519660938793 -10.012672059857934 -2.4459244604532575
-25.552339092796977 -10.08253648591522 -2.472611997645025
-25.53108705374793 -10.142085772334134 -2.4946446757500436
-25.50726540536455 -10.203838850820961 -2.518318626949421
-25.454616532120625 -10.316835441385049 -2.5675309475452703
-25.409962924290873 -10.375586123645867 -2.61727235305127
-25.359425865096846 -10.437162622380598 -2.6667582548923194
-25.30907333324498 -10.492150709397801 -2.7117969655254317
-25.266596563711317 -10.533535920257943 -2.7490949422632873
-25.223889898809112 -10.566173865364792 -2.7892550774386713
-25.183508489957916 -10.598174270280307 -2.82440598568925
-25.126454604271288 -10.642683457823232 -2.8708104331432347
-25.066828103110353 -10.687955173888337 -2.916880633993925
-25.02797819979621 -10.710770143387911 -2.9511099669956167
-24.967773263065716 -10.741573575963898 -3.006975378090236
-24.905907137214747 -10.77857494806905 -3.059865425403027
-24.84264413305346 -10.817900652794066 -3.111971551497116
-24.799472359936765 -10.845063175302908 -3.1477606997402
-24.74993635684912 -10.88507360591121 -3.182105126119323
-24.706096290331253 -10.910674540553213 -3.2196646746917352
-24.641711398710143 -10.95067048581528 -3.272672825424827
-24.595200836702432 -10.97487730962673 -3.314849941935077
-24.55695949342075 -10.994941291567976 -3.3493347811982384
-24.485235249301745 -11.043387596402606 -3.4060937102866458
-24.448953613526847 -11.06325366728634 -3.4380744690154463
-24.39880240367433 -11.08650160629253 -3.484994666609362
-24.3307178486944 -11.121564750578056 -3.5463839674391506
-24.27869938663597 -11.150061627516909 -3.591971441161734
-24.24364364986485 -11.17203992941802 -3.6212987389313707
-24.208321278990674 -11.195989886345632 -3.64988751879919
-24.172574902812116 -11.219337646383192 -3.6793584789651064
-24.13692809705833 -11.239532113610135 -3.710653412672409
-24.100944446335568 -11.257075129232657 -3.743790253110701
-24.044420380299528 -11.284573375531672 -3.794472439330483
-24.004201956280475 -11.298239099709427 -3.8360661367387685
-23.967730827982408 -11.309062750791995 -3.873265209648337
-23.92004798853653 -11.324595286445327 -3.9207144906704094
-23.851419537981457 -11.34561317442003 -3.9906178226930606
-23.803375223896396 -11.35882932375468 -4.0396031590003965
-23.746932970219802 -11.369348768793483 -4.099142728549893
-23.697417878767887 -11.378060750024652 -4.150548058529882
-23.620668645355956 -11.380855862046598 -4.2373510654006505
-23.54871861463996 -11.382387548810161 -4.317188535385278
-23.490593927954087 -11.376577682608097 -4.384472376364274
-23.440304591416414 -11.37332500930238 -4.441393194950656
-23.370624157823855 -11.38007936643423 -4.514619103078168
-23.327378399864912 -11.373548442696183 -4.563980909903103
-23.286435261742902 -11.368214465057598 -4.6103785234433206
-23.233420081321384 -11.3693422185553 -4.666820552840416
-23.16953032921173 -11.3678823415502 -4.734203924820929
-23.113815890609025 -11.349765040794011 -4.799027746133643
-23.081391936162312 -11.340386947515913 -4.836976648207214
-23.030171532795627 -11.32852866620604 -4.892271171592272
-22.985515952372857 -11.318555712309482 -4.941124715916558
-22.933195780462967 -11.294939302075456 -5.001158699134194
-22.887930563127426 -11.275584873994305 -5.052080665057402
-22.83981781042411 -11.258676742642223 -5.10390916490817
-22.784103387232157 -11.237485916499761 -5.163149101960441
-22.725538293144623 -11.210615680602725 -5.22588194580792
-22.678323629028846 -11.193111018007613 -5.2738733100634185
-22.629156613537482 -11.174668795859354 -5.322722429810349
-22.584537788532877 -11.157177802399715 -5.366268842182836
-22.53875204492516 -11.136509406047065 -5.410203732172555
-22.494602891945526 -11.111779394451393 -5.452066684504258
-22.454852707223566 -11.090222880943603 -5.490303844579615
-22.411535622458217 -11.06786167532687 -5.530918727761852
-22.371307251943264 -11.048038819232474 -5.569755316610542
-22.333179305296945 -11.029709940092285 -5.6059419054349675
-22.294406709693412 -11.010541372230627 -5.642054544118114
-22.24488908716416 -10.98227455263357 -5.690830592069631
-22.189749506627862 -10.94105399482105 -5.746042069150992
-22.138035105515876 -10.9054787441634 -5.796427905091576
-22.096168646344886 -10.871406412353107 -5.838276681875076
-22.053062447285967 -10.834558691227421 -5.880551875760062
-21.998034067061212 -10.779937012101183 -5.934887910921404
-21.956675527368013 -10.734616956839666 -5.974567225842485
-21.900674698961915 -10.68167786947447 -6.0222832509365105
-21.847569539440364 -10.639563830010676 -6.062764486010449
-21.789099767399456 -10.598804053006788 -6.100320814726208
-21.744508393923518 -10.567815726455933 -6.126555153788358
-21.700769913831444 -10.538393870768136 -6.149365708640607
-21.644361373455006 -10.50219633102483 -6.1748528851587
-21.558660923357735 -10.452791826198933 -6.206625960096584
-21.507103279141944 -10.424126925207055 -6.222004343048287
-21.434272419726234 -10.386480058984485 -6.240353987745185
-21.34908818840575 -10.34564279767702 -6.2573862839080885
-21.274402065812453 -10.297177535449904 -6.268742728064938
-21.21655384743935 -10.258031081202141 -6.275167847513108
-21.15598419765179 -10.21917949489945 -6.279621113727518
-21.082588244894694 -10.173607362247175 -6.282813655834081
-21.02846902030955 -10.141381951649304 -6.2830453780720745
-20.97941997169101 -10.110377640964046 -6.281095238244577
-20.9231203182553 -10.072710438055232 -6.27702294871238
-20.85574039478854 -10.030014540469601 -6.270297241934653
-20.803236920558554 -9.996359615881499 -6.263851525652819
-20.74798072018222 -9.964025391453742 -6.255726807485958
-20.670919275129172 -9.921985430147103 -6.243097636029909
-20.595316840867554 -9.87521923327781 -6.2278196340405
-20.534394384594016 -9.835159770887579 -6.21371190664557
-20.475411516054884 -9.801032306504926 -6.1999126606189
-20.40072007261727 -9.766790810960703 -6.182914137806581
-20.35376486707616 -9.734085513063139 -6.1687211994078535
-20.295826872644625 -9.696833317413152 -6.151345707611401
-20.21341560954192 -9.641897086367845 -6.12487795457516
-20.1487447680314 -9.584106749048715 -6.099317539967855
-20.097317931362248 -9.538810335396285 -6.078465595046994
-20.04346333435953 -9.49057089866795 -6.055368150089875
-19.974013841357895 -9.422845930340504 -6.023289755155417
-19.91696692990898 -9.360112643833844 -5.993981326295511
-19.869321762710413 -9.310256925216347 -5.96935545190594
-19.81835792614079 -9.264440229545656 -5.944271914343176
-19.763935100810905 -9.222885325945938 -5.918664251748641
-19.708337046852648 -9.183451324294591 -5.892277126546662
-19.657464499443783 -9.144409928215218 -5.866919582978312
-19.604370892790527 -9.098537203434859 -5.838619417461802
-19.55427719828893 -9.055847228516232 -5.811132988180465
-19.50359581040133 -9.014793289914408 -5.783254991975063
-19.451865064228954 -8.97590453790427 -5.755081995807664
-19.39455656984174 -8.932597454593488 -5.722847701956556
-19.354253258385327 -8.895332505174038 -5.697941753346949
-19.3018887541417 -8.850795497672534 -5.664895225064084
-19.26309918075507 -8.816132012087879 -5.6395859437138895
-19.21715424759222 -8.779150874410707 -5.610332523696595
-19.16838704508754 -8.746482292787283 -5.581242596645427
-19.12054795053232 -8.715728130488573 -5.551228390275346
-19.07111073574368 -8.679257373672847 -5.517442650136327
-19.02250905855913 -8.642096435932313 -5.4839519208902
-18.974132946068544 -8.605119945847022 -5.448828079797758
-18.928831053294708 -8.56497363885932 -5.412475847315877
-18.88412300212144 -8.524272902375188 -5.375239689853227
-18.837832575987854 -8.486313436404314 -5.336902126519634
-18.792336722830385 -8.447446741749136 -5.2975097225465095
-18.74732572321704 -8.40702082435951 -5.257229485108027
-18.702671181082877 -8.367852476136008 -5.216227428067108
-18.65923969944876 -8.330662642644395 -5.175209497607571
-18.583931159098277 -8.275512940435057 -5.107942304019095
-18.516410103366134 -8.232318333603985 -5.047815049366464
-18.47004608186529 -8.202869508571588 -5.005464391832541
-18.423287455270184 -8.171906097091124 -4.960468087261809
-18.37835291875136 -8.140597619041479 -4.916644583596748
-18.331601458413772 -8.103192829704176 -4.865476969273435
-18.295385667708757 -8.068058637135708 -4.8232887915309135
-18.257134690977495 -8.030887815383306 -4.776800081886876
-18.217547271363337 -7.996594944945553 -4.729911089017214
-18.178897215631416 -7.96349601650717 -4.68275588333783
-18.127612807890024 -7.920938562561211 -4.620181876620111
-18.083906365979864 -7.880058278774229 -4.562188523606829
-18.032739942676884 -7.835891040645944 -4.494110072547299
-17.98628476952407 -7.801488477109164 -4.433909986371263
-17.939200553954358 -7.75321014353962 -4.361145629000797
-17.88851843205746 -7.713860438647792 -4.28808914375842
-17.8579414444642 -7.688877682063888 -4.241407767447507
-17.826399639798474 -7.6513636546732045 -4.182610653367284
-17.80145963438357 -7.625491512258575 -4.137022367659334
-17.779957855672794 -7.603873763133221 -4.0968831888221295
-17.75646958915992 -7.581531387310934 -4.0523330447924755
-17.73074998976867 -7.5552509361336195 -3.999638009918656
-17.70230412459061 -7.522241001923012 -3.933380174135017
-17.6781140519329 -7.498052432839081 -3.8763493539360443
-17.65826066380106 -7.469611288900042 -3.816352020692692
-17.64346758101884 -7.439184950660406 -3.757422754457452
-17.63838155213714 -7.401868634647641 -3.7003582998227014
-17.63215921723986 -7.35486465114195 -3.618377504830196
-17.62135361685354 -7.337321550856254 -3.5624908636351265
-17.611893266186797 -7.3220460556873235 -3.505391858157455
-17.606713443168346 -7.308278903032848 -3.455700837576839
-17.59590558003527 -7.298748538657634 -3.3895017309224365
-17.587316762424898 -7.292637874860434 -3.3294559729985185
-17.5771221067885 -7.290617925440964 -3.2674317283610055
-17.56695107017979 -7.290903788489516 -3.2031193494136083
-17.559844047885314 -7.289079306998108 -3.1379842958520747
-17.555992741129515 -7.284786091624072 -3.0717124998205954
-17.5559646974464 -7.2770615665019704 -3.0050255993784116
-17.560135017557773 -7.26522068239618 -2.930277552926219
-17.56668059521141 -7.2522406718868915 -2.868987762049822
-17.57397381603014 -7.238386570943099 -2.802606435301782
-17.590594460242297 -7.212342961788114 -2.6984971428702034
-17.60151502358254 -7.194758378290656 -2.6278172868721246
-17.61779110604565 -7.1702797074155455 -2.5466662218791534
-17.637428147182934 -7.141276520914282 -2.459176497576694
-17.646843791108893 -7.126482918116583 -2.4117518995310565
-17.660685963825983 -7.1061858806125535 -2.3378963631676193
-17.67030348165314 -7.0921814539992205 -2.2805327895127245
-17.67815765246042 -7.081516929572691 -2.2225644719512125
-17.68514196700656 -7.071893894892529 -2.162662381653152
-17.68967171471393 -7.066888603395091 -2.0988288241061364
-17.69432694350536 -7.061261100492329 -2.0337422368416034
-17.70150183607796 -7.054140244631528 -1.9682481574485706
-17.710813331838622 -7.0461443131857155 -1.9049327104480787
-17.718105685731203 -7.039977678464886 -1.8363152893100345
-17.72924308486995 -7.030917630774626 -1.7708907846952116
-17.742653536302026 -7.019045415480399 -1.7048737256441253
-17.756400571352593 -7.00784516606743 -1.6386041904357675
-17.771063791763474 -6.996243156675629 -1.5717983885886309
-17.782131683124298 -6.99007655366786 -1.5006829062469045
-17.79221772515207 -6.9859836065437815 -1.4276043018593807
-17.803621560217117 -6.980810736159313 -1.35449303215061
-17.81647369574584 -6.974922754867652 -1.2838912605158086
-17.83289910920165 -6.964361509580508 -1.210749590071483
-17.850511507586422 -6.951870602673692 -1.1501833390285636
-17.885784615138547 -6.929120531474917 -1.0198459362344447
-17.909128243230228 -6.910478058526003 -0.9575082842244962
-17.936845506020326 -6.887458959761018 -0.8913556061594656
-17.95836737858123 -6.871894390815701 -0.8292732495774828
-18.016462601356928 -6.816949885044844 -0.7262487855338344
-18.05825146969552 -6.77571126008721 -0.6602618012152757
-18.11089702301348 -6.720644246733338 -0.5910730077934696
-18.137631655638742 -6.700432880123413 -0.5215651801784968
-18.165175319705078 -6.680384497800178 -0.4492551483707672
-18.190716118938226 -6.662937625796584 -0.3836326849817695
-18.223511141870603 -6.639192278252917 -0.2995635505868872
-18.29426874319018 -6.5680916768369535 -0.20028772419011176
-18.35185034573651 -6.509221067137403 -0.11685085629359904
-18.37621566090477 -6.48528858619272 -0.07978243071120339
-18.402479839007725 -6.459953475992325 -0.038309929518296926
-18.437138953854422 -6.4272158648299715 0.018129814146389478
-18.4826471026404 -6.383622743296375 0.09080160319481934
-18.51336562021097 -6.357851587911094 0.14879667856868295
-18.53833283981473 -6.3354698130038045 0.19139266624990015
-18.574594377563322 -6.298639597125495 0.24232117435512102
-18.611326778580448 -6.261874561036306 0.2929997548823806
-18.651461824832616 -6.218397743307413 0.34029618047753374
-18.688672373821767 -6.1792288319634565 0.3862124226667376
-18.73481359974778 -6.132290094205594 0.44635923421439117
-18.78991226619702 -6.081177297117085 0.527826881703584
-18.816336376139162 -6.0597268380243055 0.5730322866070452
-18.85278984898858 -6.026476609520278 0.6275269077322321
-18.88120107767655 -6.005244591799009 0.6792092680857831
-18.917719510382625 -5.975289622842874 0.7377357953106873
-18.956152129772505 -5.9416384092232395 0.79366275641007
-19.012823439333914 -5.891160959286356 0.8719503110917817
-19.0445894515086 -5.861682707155463 0.9142705064757628
-19.08167002481032 -5.830518503000562 0.9691871975938611
-19.117085138074664 -5.798737114772125 1.014281460193125
-19.151156076441204 -5.766926430215282 1.0527314424705523
-19.19535425746809 -5.725408939203264 1.1069736399416161
-19.233411687353417 -5.692749818994729 1.156453243785661
-19.27766131772502 -5.658294227664474 1.2192070101921377
-19.325218698520537 -5.626287203576972 1.2945205740710275
-19.37486674671652 -5.593429166071434 1.3730208660637402
-19.42994971793373 -5.5586963848127375 1.4575120348166717
-19.484680071639723 -5.521562508109353 1.5341897784701661
-19.5176419560866 -5.50263432453896 1.5838049180352805
-19.549951488864828 -5.4878367621800095 1.6406752852505715
-19.583032056947857 -5.472247420468978 1.6955127212816024
-19.614486565205162 -5.458288028137977 1.7475905575690156
-19.647037032216453 -5.448105260645685 1.8065349879185355
-19.678487471834828 -5.439114225027081 1.8619869101959576
-19.718067813925217 -5.428654087381652 1.9358995744238054
-19.744499122006943 -5.422908579335713 1.9807605999331575
-19.8034204994252 -5.410007208079703 2.0834862777972205
-19.8413706872088 -5.4143025737650206 2.1612493430043944
-19.87425830922279 -5.419903589967005 2.226682017790951
-19.936782203586695 -5.4170606174879925 2.3293187698266955
-19.993427140654255 -5.412018634404417 2.4173040242986445
-20.044043813868086 -5.406976238467834 2.492552693602123
-20.079150452205674 -5.396928539614809 2.5376283358702665
-20.125247176850188 -5.381709246898485 2.5929137488053158
-20.164355384912263 -5.375516224472618 2.6454336634367177
-20.21766940345084 -5.360660966055432 2.7084556992577458
-20.261235761892962 -5.3430293043672705 2.7541863636136448
-20.319223755024474 -5.3161181113094305 2.8113476752919926
-20.36414247220356 -5.321346747858852 2.875188632708335
-20.41759226784759 -5.311318836641698 2.937363266311454
-20.465343398296298 -5.3033998752502285 2.990318300572987
-20.50637487430935 -5.303254985109287 3.0441052142298375
-20.54798583237079 -5.306064632481188 3.098887807099713
-20.58805612269407 -5.303519696870445 3.1459590592673585
-20.64235970951534 -5.294039165739145 3.201387496908536
-20.690653156788358 -5.300988652709508 3.2677683443364636
-20.72639939640868 -5.299140231407634 3.3076132098165125
-20.770585797573723 -5.297042188503971 3.356766226857868
-20.814174470997095 -5.298005944439092 3.4077846969610235
-20.850152826351845 -5.293079815787852 3.4434820331629865
-20.909395159187866 -5.286674551714119 3.502636566551926
-20.954351704822635 -5.28161265500122 3.546719295487401
-20.999911059988683 -5.273497811719139 3.5877106151654505
-21.045286928932057 -5.265497904636874 3.6275545280518475
-21.088031426723887 -5.258452192225976 3.66568408424253
-21.1358843316913 -5.247252031811824 3.703556802263275
-21.18069763943148 -5.236384613535524 3.7389098687533
-21.24749782822984 -5.2163975043198505 3.785086714614348
-21.32456372631092 -5.192610748666297 3.83750365810576
-21.40550614942893 -5.161778436774602 3.887326476023919
-21.489540776253264 -5.134176895385307 3.9424807712300236
-21.57330117188088 -5.097724994979972 3.9876916994014415
-21.66694447310386 -5.052351344007796 4.034511945190266
-21.741698306345107 -5.017431058949246 4.071641572437603
-21.794666073342462 -4.992841506952416 4.096432262495227
-21.85027058490381 -4.966698099527207 4.122635290149695
-21.921402584922 -4.934061008318377 4.154895298223195
-21.96748466461831 -4.91383131670951 4.1745333502185105
-22.02601163482435 -4.889186845297024 4.199416085344064
-22.084445741862346 -4.865379207646699 4.223396563684414
-22.151055434388226 -4.837895379970259 4.246916560852952
-22.201806115268134 -4.820419032301508 4.266181275317578
-22.260503845720848 -4.802229442825039 4.287897629937062
-22.319298943466194 -4.7848823454582465 4.308151391495171
-22.378291396539822 -4.767512717861061 4.325108891784348
-22.43810484111615 -4.751739374741611 4.340602204025256
-22.497968255233523 -4.737968917775881 4.354492299974659
-22.55799607227383 -4.726290367044454 4.3679784415743725
-22.61822414042961 -4.718467626161772 4.380405705204211
-22.704000741179193 -4.710766715688164 4.395298064913678
-22.80223844525206 -4.702806883745893 4.404599359977482
-22.85634156623056 -4.700126389363559 4.4068004185831775
-22.948557392854788 -4.703624545981262 4.411681872477859
-23.038649154650948 -4.712233714684469 4.415924681139076
-23.11290559021819 -4.717722191799682 4.4158498730072395
-23.19203997680983 -4.716592391225756 4.399639188573415
-23.256600411110362 -4.717332987203278 4.386214818552535
-23.32163282083404 -4.7214412086743245 4.372736299643801
-23.40849566637612 -4.729111252829021 4.352838943950886
-23.48575756925952 -4.737200510378658 4.332808424230183
-23.55992088583607 -4.741799953908377 4.305068391964554
-23.624017613520948 -4.750254082694932 4.2818889081507905
-23.689296505218216 -4.759847831596048 4.257547362716984
-23.752182384980365 -4.768528312592217 4.229636557384664
-23.8150320431699 -4.777657562858458 4.198755154290854
-23.87776844721747 -4.789896681294957 4.169217637783635
-23.94052523084426 -4.806111968720263 4.142885526299461
-24.002518824973542 -4.824171250900351 4.1170303079751065
-24.07166889449229 -4.84726851951398 4.088711911434501
-24.133029180071503 -4.869694091695845 4.064750391243344
-24.193306683481552 -4.892811308347017 4.03933358811487
-24.272415184677698 -4.925153807147444 4.005331279418163
-24.344860723429022 -4.955336185284267 3.968717438418624
-24.40378395966293 -4.984540730600436 3.9432283145801907
-24.453802588647676 -5.012347012600879 3.9216948418074757
-24.506533072805617 -5.04434152320901 3.89765839485157
-24.551525702044266 -5.071118925119709 3.8708345161915076
-24.59873126981777 -5.100300705227594 3.838641691054706
-24.646054019530425 -5.131658178727504 3.807451363082885
-24.69182141230987 -5.162501564040294 3.771505541553836
-24.73361540116953 -5.1919177623122845 3.7357936336537225
-24.790994444088803 -5.231425176755996 3.6818449048271162
-24.84778054423193 -5.272812381426075 3.626282275080502
-24.907899402913543 -5.319737942761494 3.5701121854192905
-24.951596720524208 -5.354894182483562 3.5300140823383117
-24.986864554659263 -5.384341448149367 3.497688818682466
-25.050642087985892 -5.434879841972657 3.4261212007257633
-25.11377354007974 -5.486958963057459 3.3581176943266797
-25.175542524595656 -5.53962400017646 3.2960380751152805
-25.204958106581785 -5.563833083413115 3.263244038085533
-25.241817665189878 -5.5932056096152305 3.2176340905518472
-25.283805085971345 -5.62582364532458 3.1620972337597184
-25.32472631469232 -5.658699258375977 3.1167748330863034
-25.365812770291583 -5.691517793723559 3.072669167375862
-25.411195408854887 -5.72498451591756 3.011307737460152
-25.442408876793394 -5.746907959379705 2.9708137972038653
-25.478571128282468 -5.771924863858057 2.9262786406200085
-25.520380342880813 -5.80055700924334 2.877050417238504
-25.554914094724204 -5.822955057136893 2.8371249982118165
-25.602577778171195 -5.853252799677168 2.78609811937185
-25.646790479615575 -5.876597669264887 2.729071820462705
-25.689102187151278 -5.897374625315811 2.6753581685586845
-25.72650718881532 -5.918732628379296 2.6384036056074933
-25.7848433331083 -5.950940881729258 2.5842185724087354
-25.83754920881121 -5.980166621886324 2.5379732388126452
-25.89390437877139 -6.00869790813662 2.4842597110969855
-25.952915156307306 -6.037272298191411 2.42682276947326
-26.003013691825814 -6.063425431111579 2.382825786965803
-26.056768209939875 -6.091936573899904 2.336435030264372
-26.10404778840462 -6.118226005090282 2.295698892481269
-26.150692952740535 -6.143502558607921 2.2544002330504345
-26.196295194770933 -6.169097934687898 2.2132028455715194
-26.240578120443615 -6.193215534950195 2.171432004079021
-26.2853779355168 -6.218184125048019 2.1274120501558684
-26.340300760066114 -6.251942524013334 2.074685326573782
-26.386095990676978 -6.283454230224528 2.032376061003111
-26.42496804779166 -6.31231081745185 1.9938948308115911
-26.4591251736608 -6.338193049427021 1.9611614515752862
-26.497512555503576 -6.372863461650605 1.9253337998877438
-26.531014671715845 -6.404858403212161 1.8929148902029649
-26.572147881616758 -6.438759678599407 1.8391702019337508
-26.60522946546233 -6.4679218364098965 1.7926699523244451
-26.640234408211484 -6.499430579981578 1.737595687715661
-26.664271699152387 -6.523842760249035 1.6987370284092336
-26.696521033209322 -6.557454727440421 1.641508577276042
-26.72549762489787 -6.590082594368271 1.589300174107322
-26.76915056999715 -6.6509146518456195 1.5122504511730117
-26.80539432904515 -6.696012627837325 1.4315199289585756
-26.82852264937904 -6.728835264786444 1.3768002871365042
-26.856710861131987 -6.769517626380505 1.3107622508176977
-26.874509691038853 -6.802737170693003 1.2685672248803606
-26.892946531556277 -6.838877928515078 1.2239261505860028
-26.91538079310226 -6.87941913744255 1.1608545016282914
-26.93393957300225 -6.914799403978318 1.1004857144924198
-26.95032311075338 -6.9464135960409 1.0403561070501546
-26.966613797147573 -6.982627951006183 0.9807421888268433
-26.98126454716391 -7.019702085317517 0.9256046327954763
-26.99568185594704 -7.058532103073071 0.8677315535081433
-27.006995376628012 -7.090915687933494 0.8154768947873023
-27.01900457032019 -7.136112402109337 0.7593046204924541
-27.02974253051154 -7.170089656436417 0.7042791086930915
-27.038824848260184 -7.205233989825912 0.6489092013802633
-27.04752008733093 -7.246591687433389 0.5969852448062731
-27.057653677557887 -7.300812953945748 0.5300630968991804
-27.064240978457 -7.348201126069556 0.46910431337716574
-27.06768889414127 -7.376242665254649 0.4242076285428915
-27.06981851850987 -7.397647655146653 0.37472494946625545
