319
-14.434513220099888 6.220398160995785 20.07319733525004
-14.51779255978354 6.266992272068937 20.036337209773738
-14.585718839539462 6.281007124459137 20.00775760520762
-14.647189072896962 6.300196022868534 19.973866332871044
-14.712362321689659 6.3290309100910696 19.927648144006202
-14.800106904906643 6.348261328043918 19.865417917453804
-14.850434671597233 6.349996443123613 19.82974823859896
-14.915631521610832 6.348964597228338 19.78067808042531
-14.990105490904833 6.366480902263095 19.70752863543571
-15.035426980200198 6.362770750787724 19.66589279735224
-15.07982085188283 6.357426326111171 19.624122757938526
-15.134822486099628 6.363682518330378 19.562894090963688
-15.1849376027506 6.374649738750639 19.499092557288137
-15.227153940289833 6.379045821965258 19.446511171838015
-15.265667404864564 6.376594136540485 19.4013681097591
-15.32514873425343 6.378872642258746 19.32464832312346
-15.36337409356135 6.374024575805328 19.28001547602619
-15.416196586215756 6.367618597370427 19.214206648312118
-15.445412804494756 6.3704903086076206 19.172582204987563
-15.479086586052395 6.373511815753515 19.12473595914161
-15.523175739672793 6.365203723774433 19.071067997843073
-15.564414199131116 6.357776483066644 19.02157880538106
-15.59705294717625 6.36042759212496 18.977151455813935
-15.640801585090676 6.363653538661389 18.92072539487989
-15.689159809134528 6.35104710348593 18.86978026828661
-15.75051957817127 6.338945708322082 18.808051056240465
-15.822422250413238 6.323292923148509 18.73790010499618
-15.857966496731537 6.316438364859957 18.702905694111298
-15.910587691950193 6.303408396593909 18.65066312299804
-15.964704335565537 6.274015584420857 18.59852523790921
-16.0260699615402 6.251104041500251 18.516315142758287
-16.055997330539274 6.2390549383990495 18.461790744687598
-16.077798799460485 6.239983568873603 18.40373113640461
-16.102730834921513 6.218440308348546 18.3381296965491
-16.116390218005378 6.20634216932952 18.289189479669144
-16.13082393775889 6.193615845933622 18.235894591515724
-16.152445770431687 6.157088502253002 18.151655680408652
-16.16751341021107 6.116558246021111 18.082323053286956
-16.180741586309207 6.0720002288107615 18.000716363664267
-16.190295120919213 6.015661978337801 17.957434678014224
-16.196934688345177 5.969073120521197 17.913660609176212
-16.20426711560589 5.916691795537618 17.87064355651125
-16.211484145322984 5.855626302104806 17.82166587165693
-16.215638194853998 5.813846760809438 17.793454542720823
-16.219826635335394 5.769225265184229 17.766152840593744
-16.22474130264585 5.713486659017117 17.728838196439145
-16.22979546566829 5.6473753269802165 17.67476033413883
-16.234119585930344 5.585801986736007 17.621382863012204
-16.237238475090926 5.530805083189911 17.57302988736773
-16.238977911136157 5.478953734982052 17.52755537158686
-16.24053716916656 5.428323037889923 17.493865870975455
-16.24353464205547 5.3678108025961375 17.45127161263489
-16.245047670480417 5.2946136693276715 17.39716198724776
-16.24490788546309 5.2413337045209465 17.349127420731236
-16.242140821664083 5.187364096724261 17.29414323390471
-16.243210280279182 5.141735387292687 17.26586103922536
-16.243207710427285 5.059577299125052 17.220549511075813
-16.241423735095754 5.017502343853499 17.186335933278336
-16.238431476253275 4.963462353529753 17.14276051084571
-16.235336774988376 4.913563264994304 17.10406729349219
-16.23046928091883 4.867139987107475 17.06336387743786
-16.22149802218016 4.805144026476587 17.001372781344354
-16.2102172166636 4.748232384388583 16.931238993842666
-16.200458942615057 4.692638421310209 16.868679673569627
-16.19230760225224 4.64465021229732 16.818888246561244
-16.18434250936593 4.6010298425860165 16.7724282964599
-16.17534855720551 4.566027439951357 16.72746817977392
-16.158138355825567 4.5038140383338385 16.650994261521948
-16.13563679092313 4.4510309674487925 16.567124387470923
-16.119965815536837 4.4104625455580395 16.51509327017104
-16.092296479821833 4.3423101889089555 16.44681058758994
-16.064233685883977 4.282199047105372 16.391261422399257
-16.028631519460482 4.2046129538894625 16.336783262521074
-15.991092999485426 4.136254568307387 16.28966469850647
-15.962072702303933 4.10869881857095 16.24838237378637
-15.919993075677835 4.053092522553721 16.204593117617087
-15.883887727455699 4.015039742646131 16.168486063790795
-15.844180811087552 3.988633385313543 16.126720372212517
-15.78250997766312 3.9670716537214084 16.06276851223223
-15.732506269675183 3.947424483712715 16.016681216033586
-15.681690637898344 3.9333457668372205 15.971079134670084
-15.60845876563612 3.928099108736121 15.901960679259094
-15.553086719743108 3.9074083013966066 15.86405440388183
-15.494148696316904 3.8749044227424347 15.826210303642895
-15.440205046887156 3.844891792742038 15.795040711680521
-15.389052050614596 3.825463294877575 15.762581899569003
-15.331456099833234 3.804630087142372 15.72602416638161
-15.258592379047963 3.7794199439700815 15.682596824511869
-15.172654693557552 3.7673034859936596 15.624425591630139
-15.116681318370661 3.747538443321181 15.592993168808327
-15.039295956808795 3.7177596191798123 15.553361368995503
-14.979333418180142 3.691854620969708 15.525020462988142
-14.905337015507738 3.678556117838762 15.48083042676664
-14.842641149792707 3.6690475975543406 15.44307639962799
-14.780726931043171 3.6582427633727352 15.407825537452212
-14.735839941158956 3.6490189066441365 15.382148854864866
-14.659491112084998 3.632087301330528 15.340126220459759
-14.57576452915391 3.614766118811284 15.29601867013433
-14.510602461058857 3.601878186505286 15.261474876276242
-14.466699804712363 3.5909897771448946 15.239609209972233
-14.404298656686057 3.5732488206837987 15.209934114459372
-14.327072395624606 3.551852356807205 15.173429231981938
-14.245611907567671 3.537914923369992 15.131064812492077
-14.171882731961471 3.5261467675446827 15.094359141422377
-14.10266292653679 3.519582110571216 15.056424895510407
-14.022397291091835 3.525932147247228 15.008254910172628
-13.965952918283945 3.518639141569161 14.981616543270764
-13.909381677376265 3.5056680677063867 14.958077218548091
-13.826155379544625 3.474616736173185 14.92866355707065
-13.764611976969888 3.4770173756428084 14.897771102554415
-13.654826580534044 3.4831448574360255 14.844147643345327
-13.613466092355443 3.486253121646916 14.8244008290335
-13.562696174427447 3.494116074103789 14.799373197098795
-13.49850436514753 3.502665836958747 14.769642556208563
-13.422056997189507 3.5258722603552624 14.730559423728526
-13.364922864865424 3.5444236791845256 14.702152532355278
-13.283075682443839 3.5614058411288756 14.66596924174707
-13.223894030651993 3.5788579798647353 14.63956556554907
-13.16735603487194 3.5981445338056277 14.613041047614185
-13.092168648022586 3.618900474132399 14.583553474740889
-13.02131710886186 3.6376886672445354 14.554911310284975
-12.907321071129969 3.658235667332529 14.513931539062291
-12.852313228987144 3.678508274967464 14.492844161842193
-12.800810193449658 3.699182747059405 14.474233205439727
-12.70502472023852 3.710316222097008 14.443423926782451
-12.6060822969027 3.703105367194129 14.419033066884488
-12.539218109292124 3.713468927726094 14.39816272438981
-12.441694975245793 3.7329502172178755 14.369238506134149
-12.336290027934334 3.757192966248688 14.33738046148681
-12.227579047021914 3.7821332501009497 14.30521507571817
-12.176897509777971 3.78446814092948 14.293202037344873
-12.10601074306867 3.786799330416599 14.27617870107185
-12.042536755388008 3.7884704715386297 14.25997885651946
-11.968088645581865 3.783395652953965 14.245087168834093
-11.89734615329561 3.7853659879139636 14.227667515482668
-11.809651203281481 3.7965122000850817 14.205505367290584
-11.74678145257081 3.8264417882619686 14.184967500892832
-11.691041488331853 3.8531363879275027 14.166792625150688
-11.618752459791088 3.8858154105507916 14.143423552012365
-11.515227314109724 3.9231190947229573 14.111520846221893
-11.448963014341548 3.9475111262396654 14.090114041785682
-11.39168810044668 3.965871198522847 14.071777503379195
-11.279442471951787 3.977441192766788 14.039108457016955
-11.229233412326145 3.9613703517518086 14.028749229078649
-11.14496310230329 3.9326898853901033 14.010132359756195
-11.09312903075453 3.9311461692501988 13.995431231567135
-11.043452134562186 3.9273766654977473 13.98192485394329
-10.992816217325062 3.9034746085392307 13.971697687298725
-10.91490029059668 3.890124149409255 13.952884979967184
-10.845966717676136 3.86981083281034 13.939559138417
-10.79431802601886 3.853145756372191 13.93032458717266
-10.736126784726592 3.8339858368786874 13.92206018077955
-10.640133066196745 3.809891820878523 13.911865033452735
-10.56327073800343 3.8130823761401924 13.907204853983476
-10.493925961983468 3.784295749140706 13.910430417895238
-10.433389875558873 3.775638414582688 13.915559217472573
-10.360251706138332 3.746969470641777 13.930427455214058
-10.287975855220404 3.779986632631486 13.938259726736291
-10.215989302147136 3.8097891407240496 13.956552071962758
-10.159818689030478 3.8219154035290264 13.975566935201694
-10.095973229697453 3.8425731070184432 14.000171162003976
-10.029124310689465 3.873122223727723 14.03256278573345
-9.97206689120971 3.8903442751173714 14.063539640534827
-9.878419975968402 3.9257755726916104 14.12492292655189
-9.819291209885606 3.925534330945734 14.166609224461737
-9.760799602946289 3.896677101088758 14.203050758013113
-9.700821271113576 3.8661541814720666 14.243806226304798
-9.636132380773502 3.83506006209753 14.291104369617706
-9.577527287283845 3.8141035129382965 14.3385383135806
-9.534876478986023 3.8009949003605272 14.3754189628049
-9.48874049891052 3.7831624784878697 14.416276906685315
-9.442549614679368 3.7611479437021904 14.45798323451772
-9.402703378746143 3.742638974810207 14.496025262895163
-9.350656805993408 3.712801250972163 14.546546509174899
-9.30914250740186 3.6849567673712995 14.587520482165996
-9.266637858177145 3.656445381919843 14.633057449200695
-9.210620684029394 3.606533098498926 14.692965272412106
-9.172431478378067 3.5727329130537964 14.736046081475259
-9.11056348963085 3.5241712342527736 14.814854149401434
-9.060121658836511 3.5047594085773954 14.89349572521748
-9.025353406884506 3.514474307049843 14.965499525112236
-8.987249241634595 3.512661513765566 15.046149764819418
-8.9541722669872 3.493215027042683 15.113107106336159
-8.92209883623136 3.474774971472214 15.180523601351112
-8.89231312923468 3.4510177595272893 15.246131532514163
-8.862363547319916 3.43087716910982 15.314578411188783
-8.840342631263074 3.4012503158484244 15.367131533963452
-8.815963967642228 3.3547873910990855 15.429490726927476
-8.801136049774128 3.329080126238407 15.47161522893812
-8.785227070710956 3.3127409710118627 15.518007492191572
-8.757334737507659 3.298848329383952 15.602761309103375
-8.737973690728353 3.2939492762221527 15.662901144471608
-8.717173350302964 3.2876757432041703 15.729480500201948
-8.68107632359693 3.2762634133368467 15.851498412761888
-8.66028407845726 3.248671902979127 15.945112149345906
-8.647479853503452 3.2280062317671154 16.010999339201483
-8.636193779920857 3.2087675221322014 16.077661454400488
-8.62570062237233 3.1924570398460026 16.144983818953968
-8.620175081781776 3.1731814653072323 16.202139927470224
-8.611546557157533 3.157978748028542 16.276029205014794
-8.607764177686624 3.1479366320068207 16.327104137000692
-8.60499619565839 3.132011783244345 16.39490414753574
-8.604675489069109 3.113820194057242 16.457031070255372
-8.603713083180327 3.0908559253794463 16.537706258759062
-8.60698349070254 3.0570420661037288 16.61982455711412
-8.615511937153006 3.0164779263810075 16.690504724103892
-8.628576148301136 2.965734346108232 16.76470304406847
-8.634019295892253 2.928557812460615 16.860167736141182
-8.632448404167777 2.917747803912774 16.916705072672613
-8.634241294056828 2.899999045052896 16.98757104696116
-8.636777371168852 2.8861731010417495 17.042537221052484
-8.641147263436745 2.868589195127683 17.129539758026443
-8.64490515105087 2.8599311754858308 17.206939096376065
-8.648722897393828 2.854880420682753 17.26153630078222
-8.657408078166219 2.843580993434154 17.322262539178897
-8.668758632273462 2.842759669701567 17.419866310630415
-8.6794600647528 2.8551380778565294 17.507353550764027
-8.690996870122417 2.8599963143226663 17.566693604861232
-8.709606998477762 2.8648340047319047 17.635888510971697
-8.735498548497194 2.8801877376537792 17.72243761171223
-8.76530202171584 2.899071834740491 17.803762568284967
-8.803467921382426 2.904142103760506 17.877173374427027
-8.860631695463276 2.9130667544605595 17.97005042068152
-8.916570353529318 2.9299076355267912 18.050274571676415
-8.972703332953197 2.9594893115995538 18.124707540343685
-9.029199192986223 2.991672689801904 18.193569553074134
-9.070806830541875 3.0181896907242125 18.241862592992515
-9.107704858451374 3.047762654617009 18.283958709395172
-9.139494580246474 3.0734291157529308 18.319665959452752
-9.1767423292606 3.097986606561383 18.358100890922678
-9.221868239664191 3.127368614279976 18.404063412581912
-9.258076785421803 3.157807250861044 18.43902540526059
-9.318037537874298 3.2083381778743316 18.497470589840972
-9.37319410017581 3.250801858103487 18.549279585902326
-9.447352020476728 3.301437064591111 18.613068391019755
-9.517635609699333 3.3196757869715148 18.667684340272654
-9.574094441043485 3.3351334985681396 18.709566422712737
-9.632416446749218 3.3529795473854787 18.752285434989485
-9.688145422274946 3.370633550049286 18.79215441110459
-9.751172506827043 3.3904811061489797 18.836428164070128
-9.806547876644904 3.401649295775533 18.87301674064761
-9.871491692128725 3.4129050083659216 18.91377283119141
-9.92707145802419 3.431945648636077 18.95181681132312
-10.000066099522186 3.4544959404243922 18.99965443270762
-10.074000702177575 3.471977500496184 19.04496741319933
-10.13363732760002 3.4908194634600274 19.08276894824068
-10.185562632089546 3.50642955862508 19.114600373987123
-10.246863337445419 3.5185953288372156 19.15037417466112
-10.297036108871808 3.5253659245022777 19.17853898063469
-10.351933032619714 3.5346733752987083 19.209165890106952
-10.423357803283885 3.555636599709539 19.25050797861668
-10.47895122723713 3.572099766343082 19.282479624610772
-10.556356428687554 3.593637759869494 19.325185575515178
-10.61548050400244 3.6236193908634053 19.360807576620314
-10.668893704610115 3.6464169033723053 19.39165461688972
-10.746894924045801 3.676229535322738 19.435265670145657
-10.821079858411318 3.6937470213151755 19.472576198353455
-10.899123740316423 3.7157408472230786 19.51165195775549
-11.005372500092154 3.7584996639586725 19.566665861610126
-11.052817007069764 3.780927241810287 19.590901318194287
-11.107559270644279 3.808053689956014 19.619090469462645
-11.161639591368681 3.836125184538526 19.646483502810014
-11.222662560319515 3.8697552168161065 19.677267333100552
-11.267138037897153 3.900784065779267 19.700621956105323
-11.32529996990647 3.944771654995896 19.7319560232432
-11.369285730618026 3.972889708424632 19.75401481215363
-11.419445723564191 4.004157312472188 19.778802906990016
-11.480833036405313 4.043450707076752 19.80830679816809
-11.550785851372115 4.090357613659197 19.841462230894766
-11.615234613271488 4.133312282043066 19.870062574232897
-11.67634618603273 4.172898702303094 19.896812862557663
-11.73802962146694 4.2077493238493355 19.921474448007412
-11.785618807149293 4.231217253040914 19.938927198689225
-11.815294676990595 4.247026885365529 19.949710256361843
-11.85871135818338 4.274681797062603 19.966474267091275
-11.93185357884695 4.318137543193736 19.99253814619116
-11.994877367132888 4.340839016588493 20.009906502531017
-12.069760734412142 4.377716748214832 20.031862820315624
-12.137062240483951 4.412526417877557 20.050693433468073
-12.21696461189748 4.446191025219824 20.069613515008136
-12.299219457425954 4.466509728077145 20.081997256914608
-12.367546003198056 4.4954767488026395 20.094805893250427
-12.43631637369363 4.529144558523939 20.106789259207275
-12.477305480273905 4.557754599399268 20.11596531384585
-12.525075827521388 4.591088197091865 20.12527173486678
-12.62606947119109 4.637385595577894 20.137578507589154
-12.673687475689315 4.669611943854695 20.14527721482253
-12.742047292555828 4.716309951661706 20.154770628147997
-12.798957482940354 4.751673864480907 20.16153851157411
-12.8586443032702 4.789981502124046 20.168288003542223
-12.911366702297164 4.828146926316002 20.17456031624831
-12.96645060464019 4.871759288210901 20.18058064564821
-13.03901229041607 4.925275740036647 20.188021603938456
-13.089795569263652 4.978405003950806 20.194176938210855
-13.163564299485854 5.047837166758919 20.201249964417297
-13.212444015419672 5.108488002801038 20.206489651825486
-13.260076989495154 5.175085423770634 20.211533745099874
-13.308579784184777 5.229226555139095 20.214682158569854
-13.367233857229236 5.300014911950951 20.217749647295957
-13.395015387904815 5.347434289257127 20.219242453867967
-13.433251709267083 5.431249830777297 20.221087082768612
-13.478032744398915 5.509415332215528 20.22138062168737
-13.506697937325425 5.554710758654853 20.220678994086153
-13.532841645630555 5.604055119689787 20.219659176489067
-13.574593045697396 5.678920866445738 20.217093320057234
-13.620807071982943 5.734539102999247 20.213428930157942
-13.677774420878157 5.789380163038049 20.208651774736648
-13.744276724861205 5.848160617924186 20.202033859917375
-13.78466290736257 5.877937451252097 20.197836582715873
-13.834911132594714 5.907269989147496 20.192831665422492
-13.903148711719572 5.939281442709305 20.186181231115096
-13.960676039969655 5.9689208721461435 20.179162122630586
-14.01455327144645 6.000330136000563 20.171220829446522
-14.077229226400075 6.035886459057609 20.161174261233576
-14.124998908198641 6.05879926264698 20.153484132635636
-14.17936140319173 6.083356504734206 20.14413318823056
-14.244721545027142 6.114929443670155 20.130567358688953
-14.295751596267607 6.1461913983907115 20.116968939258136
-14.377378588802348 6.186439938426114 20.09421125559737
