499
-28.88597218851234 1.0150633919887886 -3.3861064786111483
-28.942355403751943 1.0641822927323066 -3.4036984606570027
-29.00986687796215 1.1167829943695895 -3.424166569167485
-29.05286192311368 1.1561815126323758 -3.4399518443318424
-29.10955958307788 1.219650637311379 -3.4661126849215766
-29.158279619888294 1.2539428082308977 -3.4825593902259215
-29.208727995637595 1.2894433691559586 -3.500245813043727
-29.26684112933557 1.344896836663235 -3.5270595204370547
-29.31520374858031 1.3888599638678594 -3.549734120456506
-29.368750483624293 1.432113293524842 -3.574007614266091
-29.412899582972614 1.4694620124495446 -3.5952713622601014
-29.476085090102057 1.5306509168345528 -3.630056834772394
-29.573088213649648 1.5892285964871782 -3.672451048889275
-29.63160047044093 1.629903584107776 -3.7018278617579883
-29.698958280748673 1.7018459902130143 -3.7472085260419496
-29.778729754749683 1.7632003816390522 -3.7932038466861027
-29.8325834044751 1.8140406887061973 -3.8296395596591934
-29.878644181149717 1.85361984047446 -3.859838880544824
-29.920130758626954 1.8894689479510838 -3.88785466299956
-29.988555798441094 1.9533315523136903 -3.9375206365043964
-30.0412455043022 2.010859066859557 -3.980617052674636
-30.082618716940875 2.0792908622655437 -4.026665960216355
-30.118269466991404 2.1343081845384466 -4.065170843841398
-30.190149255240282 2.2100691632915064 -4.12816253715769
-30.249565017521032 2.2666899366481026 -4.177382592238442
-30.298779528736492 2.3207556282313533 -4.223599281562247
-30.358945200460337 2.375068166562431 -4.274816006424418
-30.38668121640821 2.407287740854822 -4.302706008192189
-30.424592597059796 2.441602283052509 -4.335990804411667
-30.46991334502877 2.4860391549699097 -4.378384939220776
-30.527229843287596 2.544407971905229 -4.434240160476834
-30.57600348957528 2.5910356202524287 -4.480955345264812
-30.62488512391106 2.6397374222776433 -4.529711764407406
-30.66275029067459 2.6885427644899416 -4.575206266134945
-30.7016999133039 2.7246327027828183 -4.613789031965641
-30.737615633719788 2.754133778794964 -4.647675797237518
-30.779158702038824 2.795738567418778 -4.691249736387529
-30.8149760888024 2.8312258601775877 -4.730346452398392
-30.84571260502287 2.8689943623754273 -4.769317142708431
-30.870441329145454 2.900104572040912 -4.800933985424525
-30.898797135538896 2.9319279169944297 -4.835597500269961
-30.962400789670813 3.0018283280555584 -4.914182236979864
-31.00637330893362 3.0619323037947446 -4.979287992535363
-31.056432023460093 3.123420449779492 -5.052054930080391
-31.095089167158452 3.170527878855647 -5.108855418344161
-31.136968334283953 3.221901546211699 -5.1752747624248645
-31.16410843928926 3.2526272005815065 -5.220158891338681
-31.189767090190276 3.27992813999946 -5.263665795863645
-31.22425645401741 3.315308208180361 -5.326001627788202
-31.271560178952168 3.3520693794296275 -5.407898352756508
-31.306635921219527 3.381457866173702 -5.480540827903513
-31.33278316488264 3.4040125267027657 -5.54558561127858
-31.353648774615078 3.426634149358434 -5.612472777591311
-31.367894951536908 3.438985664050789 -5.662023939301792
-31.390078576836732 3.457112405406236 -5.738456198795234
-31.4098390322285 3.4671764180299345 -5.82157825502134
-31.42253123319325 3.4733929384296838 -5.880771959497251
-31.436131254382747 3.4792963947629207 -5.9624266030779385
-31.445063974192276 3.48232916369013 -6.027094322415838
-31.452526459779396 3.4831249102536628 -6.092018011136514
-31.45901248131904 3.483129128049411 -6.1786455856589235
-31.456821142095972 3.485079561769375 -6.264369328463273
-31.45516931127349 3.4851905866765476 -6.329729406637318
-31.45614306610238 3.4831146953465577 -6.389802587254165
-31.463431075656548 3.4772152753443404 -6.470800748776227
-31.46363703841168 3.4739786297493236 -6.5415240235834045
-31.46422580214549 3.4709582192157047 -6.646822291323119
-31.452436699949292 3.476217222741682 -6.706300617040759
-31.445291396658117 3.4804058352014327 -6.763254863979531
-31.44527281382536 3.482171897115135 -6.837631370708207
-31.434818080698637 3.491215355409822 -6.93530826543037
-31.436375252752764 3.4900656949309043 -7.035743076276843
-31.441186108799723 3.4856874017198045 -7.095869655528546
-31.438933182068585 3.4795425328817675 -7.196396954634375
-31.425499538507285 3.477322621349183 -7.27919245384561
-31.4227112813854 3.4689638912559637 -7.354088388893038
-31.41662024463891 3.4590392581582297 -7.436946888329942
-31.405120568573818 3.4495149160598855 -7.522995691697037
-31.3962252027226 3.439129334957731 -7.59474327038064
-31.399458265833385 3.4187575320143306 -7.693449448733695
-31.391585373841625 3.406730291747915 -7.766873225642751
-31.381410531681713 3.3954083917955407 -7.84020606981422
-31.372009554994083 3.3872987237278105 -7.8970077556824965
-31.36473354698771 3.3765105695615922 -7.962715484549426
-31.390393497969807 3.3485289051893057 -8.04034410226798
-31.395605791926396 3.3342011822860327 -8.09537189342375
-31.39951848539887 3.318840948866403 -8.1620551147348
-31.408654512220554 3.301814098814047 -8.228072550900139
-31.42014426164948 3.2836637452870656 -8.299781368617724
-31.42701483019321 3.2695616464949246 -8.360299152047807
-31.419318490762645 3.2596947630658626 -8.447332540670901
-31.4020587722741 3.2543836088411675 -8.539042733319063
-31.39647260109064 3.2443718638248544 -8.64822817404341
-31.39518227883011 3.238317747016505 -8.724891090689965
-31.39386534550147 3.235119852032347 -8.790244822020021
-31.39085764757259 3.232699799825679 -8.856816774803374
-31.3854756157177 3.232183768593286 -8.919190176385511
-31.38145738744868 3.233773762845024 -8.98834092935014
-31.382964216962026 3.232081263894851 -9.071066077769753
-31.382844699929432 3.2332466912764675 -9.158911730532065
-31.38264760463068 3.2341504311843403 -9.225305761840648
-31.38526176866412 3.235987178677882 -9.306891774801397
-31.386113819281707 3.237585605333317 -9.387983800261312
-31.38648721879805 3.238382938916259 -9.472222788347565
-31.375020574346305 3.2435099441952335 -9.558201930605483
-31.382584219236815 3.2449763405700294 -9.671480789520793
-31.349969959617535 3.2558363381317 -9.755191855901952
-31.325842531289606 3.264757984702106 -9.849593680359533
-31.318242455362775 3.2664208230699323 -9.92446154108634
-31.30355958388863 3.2689782250923054 -10.035987450471985
-31.29786699648064 3.2678705637544665 -10.108032951960226
-31.269490318157974 3.270100967168532 -10.227004223024826
-31.23491857234718 3.2723272780965003 -10.327165875233465
-31.201437323782304 3.2755457211944945 -10.390899195329494
-31.175878529551337 3.2743030961148047 -10.459544121463068
-31.161594594360384 3.2683076872170167 -10.530909074660551
-31.1436625400798 3.260616808850078 -10.608011880608135
-31.099086400689647 3.2494622652100995 -10.72280207173788
-31.059099709155557 3.23917006661691 -10.815946016000012
-31.00341256151992 3.2334320056328227 -10.897403322810604
-30.94258063749268 3.2272241635619254 -10.980885524133644
-30.89261753438235 3.222428414359407 -11.045791602665217
-30.85809726582548 3.217073838640678 -11.096391823252736
-30.81919778811793 3.2089682030983617 -11.158730289749709
-30.760790986911584 3.2001736416212383 -11.23880382233005
-30.718508310924303 3.1958738313866446 -11.285938004548017
-30.66706327907075 3.1880710484305785 -11.351626364182763
-30.622443075747224 3.1807069846294107 -11.409015370849868
-30.582129121771178 3.172259244349191 -11.463918658556524
-30.526642838095295 3.16341692880994 -11.53222720331659
-30.475241165467455 3.1560326686563487 -11.589743050175327
-30.424172812895126 3.1458694570475556 -11.654368788267726
-30.39414227468527 3.13870264599435 -11.695231426540598
-30.36259654275197 3.1323143777275666 -11.734685883627408
-30.30659624363206 3.1218531425424008 -11.798629821075732
-30.24341676699915 3.10932988747056 -11.871997128207692
-30.173584818302228 3.094102431426797 -11.953686878401552
-30.128585474851416 3.0893020809188467 -11.9911660583199
-30.074606595072613 3.084359154333689 -12.03301064934532
-30.034897113976502 3.079129308345582 -12.067354248298766
-29.95716714777506 3.0723632328006616 -12.123876844344268
-29.876102328016184 3.052574963720917 -12.212851479901964
-29.836839486080063 3.0431732072596267 -12.253813105936322
-29.8101985754069 3.029063813201856 -12.299503858068501
-29.776095586700468 3.004990288805634 -12.370349908250851
-29.74733156189249 2.9846001479599655 -12.427583232726086
-29.716171713252972 2.9608295263450684 -12.490084064189185
-29.68316177495596 2.9346320988640153 -12.554819969623287
-29.665198589696924 2.913403643135428 -12.600489694670362
-29.64333586602025 2.8815246503817233 -12.666584708658071
-29.632536590474317 2.840956453455492 -12.719349377848198
-29.625691758408895 2.791044214885938 -12.769506221117917
-29.63904165551356 2.727681303300808 -12.796780302689871
-29.65581312635785 2.659505349286608 -12.81556181572993
-29.668483911640713 2.5751690467294743 -12.820774075429611
-29.670843716766676 2.510159541204928 -12.816327313964273
-29.677755525225844 2.4578551750600584 -12.808884786418174
-29.65605458187894 2.4054078030412693 -12.799193382002317
-29.634130081868985 2.353603565416196 -12.786671394732613
-29.606525818719398 2.313158842153592 -12.77527353349636
-29.52477913743285 2.2640628277673267 -12.758068196623565
-29.45092484237822 2.2692151576954283 -12.75496054266961
-29.377101409268874 2.2788996294324404 -12.754077977059607
-29.314276602998163 2.2829178970808153 -12.754576690077007
-29.232191888548744 2.272062402853189 -12.755644081607322
-29.140937040322335 2.2697010702865796 -12.762500444104983
-29.065308461255935 2.2545161904046322 -12.769988636869632
-28.99155231861279 2.246393243922605 -12.781664102250044
-28.897669309574333 2.2514409152667545 -12.802704074553498
-28.812681284294424 2.2522439196661903 -12.824004827226343
-28.74777777637885 2.2542316130075237 -12.841512981332365
-28.689290609636224 2.253605414874798 -12.856695117168293
-28.642101468202892 2.2734788243976833 -12.872875488156714
-28.583584344103233 2.288182832185721 -12.890392852706357
-28.508602687361908 2.2916030453876655 -12.910732373045473
-28.4553005076547 2.3042596576929304 -12.926967594061768
-28.371197060146155 2.330864827661051 -12.953150908921092
-28.281612878022713 2.3189788123293082 -12.974032001613976
-28.221165378156268 2.309447195411421 -12.987364613916569
-28.16106198902014 2.298527393522538 -13.000500668595055
-28.072167555205922 2.292790888540326 -13.02159256821976
-27.971867526286275 2.259386700545484 -13.040983366497864
-27.892999557521854 2.213785268265741 -13.052744989392785
-27.844552508241566 2.202485478173468 -13.062913646756495
-27.77819075742329 2.1899260884641985 -13.07744154855522
-27.708288397040075 2.1828244955285614 -13.093622847419473
-27.637587313912668 2.1812626865350246 -13.110885860076129
-27.55444356833117 2.172922805549258 -13.13020161125688
-27.49024416294441 2.1648535672073264 -13.144594709668835
-27.423807738975626 2.1469588632213163 -13.15797060889
-27.354300309311014 2.1276292825017817 -13.172349720764059
-27.2823309672798 2.11085732415688 -13.187626501860432
-27.215064926709744 2.094603951399562 -13.201371785798479
-27.11690697773186 2.0718891834605806 -13.221688422944554
-27.040466354196912 2.0501075826615214 -13.236889556444437
-26.99320411971873 2.0324932013981085 -13.245920287150916
-26.945712995394096 2.013304401961425 -13.254462272146002
-26.897448319909515 1.9927879731735043 -13.263002329135665
-26.817459350750855 1.9496955460123493 -13.276159248162868
-26.723331975107794 1.901525124547934 -13.291981358412617
-26.662208799167512 1.877456752477908 -13.303267162985128
-26.613849597726652 1.8616582747895656 -13.312460157233357
-26.56529807412615 1.8473998331931538 -13.322142650748004
-26.51711476050799 1.8355597662199301 -13.332241464201879
-26.448266673604405 1.8152173174513218 -13.34558237714978
-26.372906665455638 1.7946731826767417 -13.3610224787509
-26.30803542596012 1.7831775407587553 -13.375045177804227
-26.23404431978549 1.7597801965530895 -13.388693397041548
-26.16933834047639 1.745428753145692 -13.402457509763885
-26.083624959711546 1.737753844149582 -13.421301713651763
-26.006430868318137 1.7299044643409038 -13.438216708297363
-25.944354540939383 1.7206222936798907 -13.451012993183646
-25.868854461258234 1.7012755899265848 -13.465526592020721
-25.818309794068828 1.6912677339514213 -13.476297927115922
-25.722374625605912 1.665059788536455 -13.494553053920713
-25.642083722221265 1.6390438259709228 -13.50928117295249
-25.59194499847567 1.618543755462282 -13.517921848891936
-25.52308167214927 1.585469040187097 -13.529228454806407
-25.470275921985692 1.5612282324608566 -13.537833555050854
-25.415922921076017 1.559736707474567 -13.54917641683499
-25.328059809637903 1.56589979838569 -13.567952628628214
-25.275875007673942 1.5702007745280868 -13.579011992497005
-25.215467253582066 1.5760191373822794 -13.592197713103465
-25.150803056323724 1.583817298632927 -13.605656116336284
-25.085130455107656 1.5827239070680648 -13.618601687318913
-25.020918690680148 1.5860104645148718 -13.632275744951478
-24.96393295665288 1.5981081732347198 -13.646122967363423
-24.890531622273546 1.6160103227864662 -13.665164844125275
-24.801023155090167 1.6566160265684893 -13.69110606383836
-24.739770706817673 1.6855168620048007 -13.709086177085762
-24.666164941014305 1.7160202112009468 -13.730584613603625
-24.55002193657701 1.7509636925397967 -13.76169614516978
-24.49064020376594 1.7505492790953516 -13.775551320248463
-24.40372064059058 1.7369752724011516 -13.793532235023271
-24.35048194610972 1.732995024359604 -13.806973675096758
-24.29912423091529 1.727247079524492 -13.818657642268258
-24.233743106919835 1.720791957288819 -13.83381998572261
-24.185273591488677 1.7078351118451192 -13.844086789808447
-24.075167943619853 1.6709963599605393 -13.866478273512842
-23.96667446760056 1.6333814811628864 -13.888329716581579
-23.889889917523206 1.6161575446570682 -13.90408943906046
-23.8397163609027 1.5834645541757784 -13.912897468413737
-23.782514619612893 1.5421444183280153 -13.920958271203123
-23.73406930763257 1.5057414790132038 -13.928484921325897
-23.680820916568894 1.4688006854868823 -13.936170559709737
-23.62342441834173 1.4327898341390295 -13.9441933244813
-23.56661974471998 1.3980165287360737 -13.95143769218151
-23.505901051455357 1.3663442212224641 -13.95867897260864
-23.445016808004205 1.334922032671999 -13.964553428806132
-23.363849738656544 1.3037177951183327 -13.971221919240598
-23.29486138148299 1.2896447929831423 -13.978197130258
-23.236467109203673 1.2790600359024449 -13.97857177606403
-23.17311841779112 1.2656957283768016 -13.979333583980019
-23.123705286715918 1.2562651605614805 -13.978612753031694
-23.039049544215086 1.2422039258269697 -13.97452712541325
-22.915908958957512 1.1837270465256506 -13.955469792670147
-22.819551182861307 1.1130719627455123 -13.92596058487523
-22.766525349289626 1.0792717887859897 -13.906353900856734
-22.727967480644228 1.0509371410812145 -13.888275099816108
-22.645388982315147 1.0135670825850331 -13.849014535397778
-22.60954274305419 0.9972255551682929 -13.82923369119519
-22.55106756967427 0.9726811435554583 -13.794485154878952
-22.497847614397713 0.9533048022317487 -13.760396391539397
-22.417392214640238 0.9290104854750032 -13.705115960946618
-22.335886052804067 0.92201829427571 -13.648058385049266
-22.295148755164238 0.9121247078225787 -13.615818123256009
-22.242060313619604 0.8965019170896937 -13.570569665423875
-22.186654287149814 0.8764324467646811 -13.518901678386149
-22.11502143959622 0.8794171746619543 -13.458197987007495
-22.044314319251896 0.8763521860530705 -13.392433335709677
-22.00641701897825 0.8809061370957476 -13.35700534812669
-21.944966966673075 0.8912146755057933 -13.297393209991807
-21.89965857388425 0.9009703251466217 -13.25151031682336
-21.851232567317666 0.9023512884370559 -13.199360864694755
-21.80362641703584 0.9040119760827725 -13.146308380333709
-21.760368103269954 0.906779544049908 -13.096814068946784
-21.681744637227087 0.922074841767587 -13.004289078000303
-21.62478400058107 0.931584527745219 -12.93420364168371
-21.56837897519397 0.9437902350050162 -12.862297403400039
-21.509194531206685 0.9555530517714357 -12.78425358814089
-21.465663232788902 0.9647390535621487 -12.725351856735848
-21.415117585034185 0.9780856618449887 -12.655167564084381
-21.367433179259482 0.9917994070799852 -12.586547043682598
-21.31958991927428 1.00900748890195 -12.515630495983935
-21.275563074689646 1.0275700207786511 -12.447433926702535
-21.238049030793224 1.0416389119218943 -12.387905894212562
-21.201220775209975 1.055601631225628 -12.32993784082593
-21.168064079118796 1.0607579616513716 -12.277588215874072
-21.10056051869303 1.0707612738315437 -12.171587157993821
-21.067465209340767 1.0840330411182544 -12.115675301427586
-21.020605800654888 1.1044147443902288 -12.034838120822121
-20.987950920006604 1.114862121933291 -11.978407982219895
-20.94971551957325 1.126666360081264 -11.910808421936153
-20.9177064965029 1.1340534192998364 -11.853975668053975
-20.883870234159954 1.142435319718369 -11.791113017322719
-20.854172652742978 1.151795207066038 -11.732041990104772
-20.811391887877633 1.1774133061791883 -11.636860271503027
-20.79147303712591 1.1904074173062051 -11.589958134910468
-20.763391037004194 1.1960433660573817 -11.531012590393386
-20.72045952749896 1.195698912508512 -11.445491147332241
-20.68186203193824 1.1963965343577758 -11.36377262541432
-20.65271042348045 1.1982405638020808 -11.29988666119633
-20.6255839131279 1.199889411656943 -11.239532287331507
-20.59947666094171 1.211882769128441 -11.170465790332715
-20.573264510782245 1.222579637815409 -11.100936797578719
-20.551333576176074 1.2361791164156894 -11.036734578212458
-20.531139614652318 1.26200215346966 -10.962842775937368
-20.504425550396554 1.285122820824081 -10.87507160611117
-20.473744430775575 1.2961799539806442 -10.784558608386824
-20.447511691341983 1.303531873161444 -10.708199547620856
-20.42783317400647 1.3142991564365278 -10.643597210127762
-20.40664624169746 1.3258304093960378 -10.572498855061804
-20.381273660427865 1.340080841869371 -10.484917477729843
-20.361225496880422 1.358630330161584 -10.403619856838912
-20.345215976885754 1.3707652110816566 -10.341914818391157
-20.331769228234673 1.387430022001995 -10.279272087697183
-20.317799460452783 1.4037094977682854 -10.214239849555153
-20.30490247290513 1.4150845506558456 -10.157532090453508
-20.281691000364862 1.4328885077111853 -10.05675922324485
-20.263420931595885 1.4444257687532467 -9.978588921027733
-20.24110273544175 1.4564163538834007 -9.883497190174182
-20.229308102353684 1.4661678101609024 -9.825476320093486
-20.217869629218836 1.4718042026756146 -9.773617671661826
-20.20560974699443 1.4803056906407699 -9.712095057862
-20.185981801970573 1.4990837442162928 -9.59524593690219
-20.16295256718202 1.5060587673521049 -9.478580982307433
-20.144858711701026 1.5037695412012306 -9.392552767537174
-20.12830257634908 1.4978846344966739 -9.31181628282823
-20.115135147885148 1.492471866085742 -9.23687107994165
-20.108989613712826 1.4915396746576874 -9.187072229091928
-20.103176186180992 1.4917344968654804 -9.12252552370675
-20.0966966080652 1.4918165946353215 -9.043967127315815
-20.09257889713658 1.4865248288303166 -8.975770963328738
-20.08918503820721 1.4816629425817371 -8.914084382908756
-20.08733250997021 1.4761390627693052 -8.852245976045744
-20.086442898458227 1.4683397580432747 -8.773883302275753
-20.0884199414352 1.4613505114871348 -8.697985263631073
-20.09170221987742 1.4558165405916554 -8.632516317818274
-20.095017579811927 1.4512413058959996 -8.577184185604354
-20.101992644537777 1.4451212708677517 -8.496626815971243
-20.108447849590174 1.4389157124388623 -8.425827371929627
-20.11803726579207 1.4349702814492646 -8.35558685262305
-20.127040099349056 1.4326838339231456 -8.294998011199038
-20.13439964033757 1.4250279055682888 -8.233822735939688
-20.141863578676222 1.414741915990417 -8.171467399181832
-20.149612949990548 1.4041371083596115 -8.107666961317914
-20.15777356110358 1.3917940583950772 -8.043445384275559
-20.166872625121485 1.3794283112109298 -7.978216993407312
-20.17792005972132 1.3684146122610823 -7.91199154648257
-20.18963211818628 1.3584914468028657 -7.8440843137519
-20.206083049073946 1.345580332549087 -7.7576722533832765
-20.21579546822199 1.338073825817438 -7.707596874809397
-20.23191411412546 1.3268573008315983 -7.638372935369853
-20.246242734789387 1.3164414027079046 -7.569289706631972
-20.263748330456515 1.3071097375603644 -7.499003806047648
-20.28377257500642 1.2957187260336767 -7.420774208523891
-20.310488758966976 1.269779698141802 -7.309246076230286
-20.333194257119914 1.2470901730700747 -7.220258355157609
-20.35042056511592 1.2274944928009752 -7.154595358290777
-20.369243176097168 1.2100274116532717 -7.089114671205065
-20.389737895058897 1.193430791071691 -7.024500434047379
-20.412195913250674 1.1748222868233285 -6.958524312068622
-20.433895846331232 1.1619401682461028 -6.898127383958686
-20.452431516522044 1.1498027468469325 -6.8481427180601315
-20.473761445151954 1.1230454189900776 -6.786795404424556
-20.510831017907623 1.1017575814141831 -6.702456665199456
-20.540168762722125 1.081459256160982 -6.638968267703673
-20.56635169670156 1.0634723337465117 -6.585524874346344
-20.593476208229866 1.0474496009815115 -6.535278896537221
-20.62740605168446 1.0265712950765669 -6.47482004583385
-20.670734934246997 0.9963512247068875 -6.400396122528182
-20.728739739299236 0.9471320908711043 -6.3047336491242945
-20.76229478536681 0.9221829966791324 -6.254171075202203
-20.794726585204923 0.9001817214576517 -6.209672043847004
-20.838695731532667 0.8692117328091502 -6.152711885462507
-20.875420812460927 0.8409484759511896 -6.10643167797012
-20.908368047597573 0.8161430776872036 -6.066385465826674
-20.943142948598076 0.7880179942847594 -6.02783629014416
-20.97870235363983 0.7580835114740152 -5.989685122838184
-21.010475463677878 0.7311023445650298 -5.957508107586563
-21.078257106638073 0.6645972097215234 -5.892786623498241
-21.160915141617387 0.6003113631462389 -5.821495569292868
-21.23040113438275 0.5547940427470981 -5.766552482131834
-21.282829636787074 0.5240570174172667 -5.727426045605975
-21.338509900473788 0.49406902482675186 -5.687744569485073
-21.393555286339698 0.4628382040086727 -5.6481546618077285
-21.457163960814704 0.4222838647284539 -5.603452546387345
-21.49614912863045 0.39856019837758083 -5.576715739387043
-21.54310629858413 0.3709157740189748 -5.544815696369386
-21.591727896153255 0.34727406493902935 -5.513295341491645
-21.66885693464616 0.3148474317346679 -5.463000981763038
-21.728470693170973 0.29233522729093586 -5.4245754078465325
-21.781242083898565 0.2706834852657982 -5.390432424195144
-21.82575848120984 0.24973405158308815 -5.361634382382865
-21.884175298081676 0.22281312548509202 -5.323928814128184
-21.9297979250876 0.20331577453716765 -5.294601467261437
-21.976369837036565 0.18382286542187964 -5.264750463258496
-22.01893580655927 0.16283490448300242 -5.237603866350624
-22.1014797966714 0.11390997996042662 -5.185491399946641
-22.1420807022007 0.09274266578476364 -5.160789636768394
-22.197498579862597 0.06490585129121396 -5.125766791900906
-22.2467066235836 0.044382043957252204 -5.094755080052289
-22.312068453003512 0.007984825567189269 -5.055179407892365
-22.369511210442624 -0.012256929903059266 -5.020967240900314
-22.42351610393435 -0.03379422155131184 -4.9888009803317495
-22.48670468939078 -0.06068643240605853 -4.952371942146003
-22.545313721479957 -0.07181327774155744 -4.917109708521247
-22.590561894131447 -0.08729187536662897 -4.891178174858007
-22.655106962151244 -0.11249682411074335 -4.855060872572246
-22.70295296058212 -0.1333445494657024 -4.82804142743052
-22.764318191170066 -0.15600114576672075 -4.794095084030795
-22.820234546910225 -0.17909880088910368 -4.764326898008518
-22.884576774706822 -0.19228381191156663 -4.729241448615636
-22.95434928000236 -0.21082508304818326 -4.692778235702635
-23.002831970190062 -0.21897544987880035 -4.667554601702552
-23.07127986990604 -0.21957494169732295 -4.631632856278051
-23.11827581492277 -0.22499975783442938 -4.608385166635616
-23.197177005557503 -0.24043148245175416 -4.569634734410282
-23.264144229772047 -0.24026019636116436 -4.536728145457962
-23.341572131080756 -0.24430930753004 -4.4998861030242026
-23.435276311833682 -0.24798922708091187 -4.457107512786303
-23.513636772292454 -0.2426610143655612 -4.421882234713118
-23.586862725134598 -0.23895196880518332 -4.389814789879368
-23.66730118249361 -0.23085171997789233 -4.355417674978863
-23.72606935151425 -0.2294882366782467 -4.331217402661233
-23.773292609943727 -0.22895938085776635 -4.312285537921334
-23.820762417240715 -0.22682572254814115 -4.293544017413634
-23.86864581600667 -0.22535766368984822 -4.275074172446656
-23.916775470008616 -0.22246608250685096 -4.256818191078298
-23.96525873336928 -0.21818276892094168 -4.238708335140159
-24.014079486469104 -0.215494655350966 -4.221142673010738
-24.09872544002751 -0.2080175586332036 -4.191229317090432
-24.16271528932375 -0.20393163057270236 -4.169836878251592
-24.213028073129095 -0.2005893068384852 -4.153407405303789
-24.26357659559472 -0.19487354626983144 -4.137160356485317
-24.314520833557797 -0.1896359500462408 -4.121292369051491
-24.37183429842356 -0.18558306619989207 -4.1041143707218035
-24.441915215042812 -0.18045823125641647 -4.083535513198124
-24.507914343541877 -0.1727003844189796 -4.064359708737695
-24.562797912088254 -0.1638668419107039 -4.048323857318783
-24.61843095753122 -0.1506855521200121 -4.032053759481417
-24.686104379545746 -0.13313080047711168 -4.012165427620388
-24.775188122234322 -0.12478745688959947 -3.987805456651066
-24.836038156449973 -0.1110441724553306 -3.9707174445285247
-24.906046158911806 -0.08877811444560368 -3.951421736826777
-25.00607256899043 -0.06054315010575273 -3.924258680050789
-25.048567121803714 -0.05124581164031561 -3.9129585480888487
-25.103752374602863 -0.03917141736956298 -3.898284494170202
-25.167526854248596 -0.026579641655834152 -3.8814273555810033
-25.232089906004674 -0.014217948845861805 -3.864360801276625
-25.304208139822823 -0.0008665229599627011 -3.845914343507487
-25.362885220444724 0.01156120554226625 -3.8309554575617466
-25.44077159342704 0.025346300641184705 -3.8113359460959577
-25.55268231283867 0.04708714064764585 -3.7838223757657037
-25.644264080257933 0.06464526809821702 -3.7609547963749503
-25.71204813292351 0.08514817336570779 -3.745480983871887
-25.80573406798734 0.11272459608005292 -3.7232464494026947
-25.874899560704222 0.1290275267443448 -3.707264688106002
-25.94421291515865 0.1425093199120253 -3.6912644851706222
-26.013556059786445 0.16617026034447635 -3.676203912813292
-26.063127721824937 0.19027623009461347 -3.6660500201795685
-26.181308091009715 0.23292022370774834 -3.6420321009798506
-26.283625339467857 0.25199073460038335 -3.6207656620908506
-26.33429947077668 0.2690741631923874 -3.610498272791378
-26.385568597884706 0.2863577011977769 -3.600109588476854
-26.469683503519406 0.3154343038194831 -3.5841950451399063
-26.53971099218802 0.3377938477753979 -3.571177161374224
-26.61034243439333 0.35800675979812 -3.558114674213103
-26.68563463325831 0.3786414650771768 -3.5443112272369306
-26.74980182557944 0.40591645071482674 -3.5343076766952355
-26.830607495054053 0.43824537868652236 -3.521645242823589
-26.887536027608977 0.44572264831743436 -3.5109207741831385
-26.979921518808272 0.4459914918210668 -3.4929731824917356
-27.0415121970466 0.46858585030410627 -3.4835289247363264
-27.11244887380021 0.4901836097835348 -3.4729109001302967
-27.20417813880898 0.5129697138418106 -3.4592320393664395
-27.296964688878884 0.5355223547784167 -3.445563815121647
-27.365696100390746 0.5531875109468154 -3.4359353148055236
-27.42992512989239 0.5695707079495431 -3.4274751812214914
-27.503396642185198 0.5875203089205092 -3.418350910528615
-27.571517254265668 0.604116886229213 -3.409931121005285
-27.639249743894766 0.6205669455559386 -3.401784314137755
-27.706289993391717 0.6376924381896965 -3.3945249705888667
-27.773114746851505 0.6536832736454512 -3.387413596251933
-27.839612167304924 0.6689825948978205 -3.3809490537214
-27.905301364564888 0.6845044926087449 -3.3744411012019713
-27.970305127929457 0.7004349011090323 -3.3689519275079114
-28.03455907604979 0.716985286184785 -3.3641639550068883
-28.098424930244004 0.7321246175534943 -3.3595504026972343
-28.161678495348607 0.747035692013021 -3.355318455361841
-28.223871106183548 0.7623196680120929 -3.3520914483780855
-28.313281379458598 0.7856736497392829 -3.348457843916914
-28.403449123408304 0.8171510277247025 -3.3481337191530276
-28.461640125064292 0.8364640471748732 -3.3483654219199885
-28.55739041137451 0.8610417220882702 -3.348149880233308
-28.642077430089447 0.8937979866292376 -3.3529966644789146
-28.689922140431456 0.9129293397025995 -3.356430207722646
-28.76799968417062 0.9415233491886674 -3.3627082243505804
-28.840806898122604 0.9850106414127531 -3.376014591247284
