406
-20.0338709704476 3.2699858508632964 -0.79411138743398
-20.112855216753236 3.2959349472955686 -0.7786400143140968
-20.200819407524012 3.3203906227425994 -0.7661137477749049
-20.242082791211704 3.3296232945870954 -0.7628557456122447
-20.332333432778608 3.339723436186409 -0.7582935035718419
-20.467955559613205 3.351284988245661 -0.7626466913591223
-20.54138411374274 3.3729669137306146 -0.769285155107509
-20.60577421262224 3.3982068344007152 -0.7785860319319593
-20.675441677421727 3.4208192491005884 -0.7929039401189677
-20.78300104870469 3.4360546661655635 -0.8230334633790546
-20.843328129034166 3.45314064577232 -0.8437435813813658
-20.924655396584285 3.474818945440702 -0.8760134890263409
-21.00107350104801 3.4960255595677188 -0.9118108351341188
-21.087623145535648 3.5367102710061964 -0.9548955738126514
-21.156380149164303 3.558798886636645 -0.9929433167150779
-21.204244679404674 3.571570504934589 -1.021574537661406
-21.297072312421403 3.609007180848895 -1.0828164895286518
-21.349327384371314 3.6203602878853154 -1.118967298464161
-21.411616832852058 3.624677952266919 -1.163692930868715
-21.473027340211694 3.632903792821286 -1.2098722524043302
-21.520286554167487 3.639548315304846 -1.2466722894749926
-21.56583738900163 3.647992208962474 -1.2836677379378154
-21.6192215085045 3.650351545027017 -1.3274599094199193
-21.691446726155995 3.6451897722328566 -1.3881989631342706
-21.73697469314673 3.6426290174266125 -1.4269839348747602
-21.813762302456038 3.6253392711390084 -1.4929512947361097
-21.886505462895762 3.619561504832726 -1.5601372640969684
-21.93793896293995 3.6090948747103173 -1.6079191131566104
-21.982517534281968 3.5931482832804496 -1.6487335754992363
-22.042684659536096 3.5737055358615764 -1.706919852721596
-22.107348542061214 3.5663677340971054 -1.7713024301778093
-22.179621892416304 3.55175356698281 -1.8472251698874964
-22.251494945541335 3.550743920418621 -1.9285182724387357
-22.283316536080438 3.5617231733940207 -1.9687297769754755
-22.3227444364962 3.5813686299140697 -2.020129130632736
-22.36669404449436 3.592402230335072 -2.0803164714955034
-22.39595507462184 3.603547331763165 -2.1216707706530364
-22.44837148066758 3.6084508463018405 -2.193958345885462
-22.486293807354418 3.619084761546031 -2.2517732998045004
-22.516263562766632 3.629193444075281 -2.299347175656636
-22.54428556986309 3.646112042256592 -2.34780428040784
-22.572391759987124 3.6587922860774116 -2.3989632132055783
-22.606433113940124 3.662284160834051 -2.4578607596787925
-22.6409404962742 3.6770266195944945 -2.526567934801821
-22.668127803810854 3.6801803676137803 -2.577473922170653
-22.696251046051746 3.681165193517745 -2.6315848733577214
-22.73109495219742 3.663281533325303 -2.694424140932358
-22.759820217828715 3.6437793969997894 -2.74346277176724
-22.79260290516662 3.627955078766066 -2.806140584257586
-22.82809824232596 3.6058505399999072 -2.873734597683725
-22.853004802866 3.5915450900120205 -2.924340823842504
-22.891160647301568 3.5647029537341828 -3.002679926260065
-22.936484975216924 3.5164836383166747 -3.0939426571988955
-22.962918216547575 3.4874819196062194 -3.149015066221587
-22.98597093294095 3.459463292237523 -3.1989427970300928
-23.007088978270566 3.44089830412805 -3.249140483529546
-23.049669599656816 3.4080003579870843 -3.359055751324311
-23.077964313061997 3.395457825809152 -3.4443446488342886
-23.100418666090054 3.381966108436064 -3.5145000539884483
-23.119913737112498 3.3698460164565196 -3.5794973642481076
-23.147945395613466 3.347713825281416 -3.6772946351579767
-23.16137858350269 3.334647681193914 -3.7270589188753953
-23.179360372733818 3.3184386096811744 -3.8086660807735484
-23.2006128667611 3.3005211783692756 -3.8968843375650417
-23.219167434622157 3.2969940173464614 -4.008544398878831
-23.229805975105116 3.2925029207262577 -4.076656261932078
-23.24529906112842 3.272336759106718 -4.193821861088016
-23.249604699290376 3.282090605515252 -4.259141998781155
-23.253507482161865 3.2843664048979915 -4.3195330452169225
-23.256541031894866 3.2897096704359967 -4.397083008472667
-23.257758611997478 3.2927278667906585 -4.455375942009866
-23.25735732129621 3.29899243425973 -4.5406073381560805
-23.254543042723178 3.309890049003317 -4.6170934281249725
-23.252411218828044 3.3064506150483672 -4.682917484189257
-23.249086744929798 3.3039964104915986 -4.744367128940752
-23.24473122820076 3.3004772653816894 -4.804498902580531
-23.23545511165033 3.2986132397377608 -4.894388644448662
-23.22238383030991 3.3067188893465884 -4.994805311673046
-23.213937811972578 3.292698373189405 -5.063372851688014
-23.20676825294183 3.280818724222212 -5.116766608088505
-23.193368506396805 3.2897290451066734 -5.194492058534867
-23.17529174387215 3.301561401757959 -5.27986360044698
-23.165683105219596 3.300008880024248 -5.329570025434544
-23.152069295121645 3.291986981773409 -5.397940835096982
-23.138606847722638 3.2792142623355023 -5.46623651439934
-23.12745059510117 3.2658604491575494 -5.517686765486223
-23.10707834793772 3.257235742212189 -5.60563089495964
-23.090149204764206 3.244566098930057 -5.675253577828387
-23.073271841505388 3.229085320138362 -5.745423257973595
-23.05528097274062 3.212604457799165 -5.815461218469401
-23.03019058575818 3.193291670472278 -5.911230519478914
-23.00275854899086 3.1853778412379548 -6.001352411672694
-22.98176856190436 3.171661982098382 -6.071594379431856
-22.959294819577188 3.1558547872087246 -6.144993736895623
-22.937523154902834 3.15623258402547 -6.209993025096102
-22.914182030459184 3.1530826394080522 -6.2785617394389135
-22.88538711896026 3.1430270281678743 -6.361759357591101
-22.862673541201055 3.14182612041317 -6.424186416276646
-22.84190903001849 3.1342529587786148 -6.481084297318006
-22.821352183436687 3.1234970348675315 -6.537553194015107
-22.791955382307354 3.1164994191030404 -6.6127175844003645
-22.765843680159453 3.113366159273135 -6.676795034178051
-22.739863952693028 3.1047483240974394 -6.740222871706385
-22.71234821557488 3.0960799328506026 -6.8052239799499095
-22.6799819107269 3.0914379467623188 -6.879017634701691
-22.65294642400169 3.0825163348449136 -6.938518615516907
-22.620837832849755 3.0690512031899257 -7.008025899277007
-22.598057580365563 3.0620411735345927 -7.05536994819167
-22.559882637577722 3.056499967962978 -7.131407694418957
-22.50908111514747 3.058974750617505 -7.2276152613449955
-22.483407604403364 3.058068131187261 -7.276906281745889
-22.438205827017324 3.047304011077358 -7.352510601218956
-22.388186317039082 3.036542118755627 -7.431792182911241
-22.341320523985345 3.035351646781632 -7.500840278456842
-22.32195671220432 3.0343595437299467 -7.52758129491297
-22.300947885897415 3.0334539333651476 -7.555405098335177
-22.246784227640184 3.026922416400068 -7.623944539742201
-22.209426443525928 3.022883788589376 -7.667389467942396
-22.16725938064845 3.02250189965658 -7.714288633775892
-22.12657458377434 3.0208741743405816 -7.756374121905438
-22.063892005096303 3.0231544090779607 -7.817276113170669
-22.021058630280073 3.030076600787418 -7.856901268572955
-21.972756324826584 3.0441650168559855 -7.899546449361189
-21.909231000300736 3.059948334998513 -7.951024705016291
-21.84029274259013 3.079803598376751 -8.003914976714322
-21.785103429272326 3.1055573889666985 -8.046477408875017
-21.73884053831253 3.118738831432245 -8.078759562872397
-21.686221132308795 3.136224340456495 -8.115050396618114
-21.607771036077153 3.1551317518095483 -8.167871481113503
-21.527361115498657 3.1424363726051894 -8.220092832755679
-21.471351441356532 3.125771684125735 -8.255008380038833
-21.418891430674297 3.0880365662723834 -8.288747674915834
-21.35936137740681 3.037817511613405 -8.324154121691986
-21.31337539305124 2.9818245608466576 -8.353124739191363
-21.26231528261717 2.943354798688104 -8.386912357541203
-21.20390605084573 2.9097587013295203 -8.425334761786955
-21.137207880607754 2.8928091202090016 -8.470728434905404
-21.048478393143274 2.890729796889575 -8.53258141382117
-20.993606257974154 2.8914103466522976 -8.572449645018976
-20.926802293233223 2.8898896640524203 -8.622402878898672
-20.860824513528367 2.8857541216129663 -8.672046220669396
-20.807886388062347 2.8874775002213813 -8.710718946267823
-20.75741461174899 2.882471509960169 -8.747462503809471
-20.693409255975396 2.873292524621231 -8.793878399177258
-20.638601130657204 2.867709137923895 -8.833749307751367
-20.583866767401645 2.8587666655535595 -8.876061779814854
-20.519965876307587 2.83732697973706 -8.921675607840264
-20.45156532621389 2.8216361180774845 -8.972429278233278
-20.378078881695703 2.8093358611665593 -9.026171857741527
-20.30155800480565 2.808391234033448 -9.079637486037075
-20.22235946186308 2.816554032149531 -9.132122767934034
-20.14506835339067 2.843578191049523 -9.177682277674293
-20.08693691085968 2.854340798004177 -9.212812944232633
-20.01869572338834 2.881000321973139 -9.249359327104433
-19.96356999491986 2.909252412668688 -9.275144301606149
-19.881171959857962 2.9580689622915877 -9.315964861189888
-19.795092666693716 3.0094492322801054 -9.357294175019272
-19.712417529658556 3.0352793412079 -9.382229934317454
-19.63810500688174 3.0213719518530646 -9.426353272408036
-19.58584172179386 3.0025964841200423 -9.460859632213568
-19.5226883773863 2.9631463913710356 -9.509088471531351
-19.464689861835982 2.925600481161346 -9.554245424425517
-19.41295048175994 2.8966120046699584 -9.593716394114212
-19.38004669523018 2.8662742209694905 -9.622900513206941
-19.343116609404063 2.8267318534847723 -9.659334198527512
-19.283988696651058 2.7763672734498943 -9.712238228124724
-19.253906064198514 2.7458521270980176 -9.741860426898867
-19.224001259083572 2.7161686658669573 -9.770918655675642
-19.19629805910671 2.6811693571790407 -9.802475477108516
-19.156999193936237 2.632344059342309 -9.846324501540446
-19.11179950553996 2.5998637475753705 -9.884528915017746
-19.066043839050675 2.576402720975533 -9.91729555759206
-19.014291169009052 2.5563321930781187 -9.949933750928123
-18.967058007721906 2.5435746953603102 -9.97468460132972
-18.921320702524707 2.530822477016452 -9.997327818535632
-18.864988137415125 2.506640280772025 -10.027873056839347
-18.716977009328218 2.44863989745069 -10.086509310641393
-18.600090627378876 2.3794774623191364 -10.125384865094725
-18.55092073075078 2.3465463380075335 -10.137028480919168
-18.505870669824308 2.3090834462999013 -10.146758691712407
-18.43151715613253 2.251328637098964 -10.15419964444695
-18.3830306828813 2.197515418502876 -10.159621012391614
-18.34318855789193 2.1439339655162324 -10.16336871222987
-18.313437743354726 2.1004708479378014 -10.164246225807384
-18.292248512685735 2.02939868687579 -10.173327560613806
-18.26981687969361 1.9592761863829125 -10.179347765422769
-18.24212482349782 1.8901813841519597 -10.180515628610523
-18.215494653549612 1.7783084266649778 -10.186954091318
-18.194891528561957 1.7282052758350366 -10.185953359557702
-18.171093356137444 1.6703262300228137 -10.184798317555853
-18.131802375359754 1.589264530560924 -10.181763650845943
-18.089727017702604 1.5204480681472452 -10.177418472752642
-18.05140599390745 1.4679317686586455 -10.173958455239177
-18.01483929253429 1.4278891838129206 -10.171587878110811
-17.98547533161765 1.3833254145484557 -10.172534898473764
-17.94178603572671 1.3354546209348168 -10.174340760731356
-17.863564745856564 1.2794823791604681 -10.18138998488006
-17.77631957454115 1.2224161396565192 -10.199274724597142
-17.7147143987735 1.1947223167637502 -10.212445513943196
-17.663923295886836 1.1729863569115153 -10.224562620326717
-17.576985053437483 1.1493336129351932 -10.238642809460915
-17.4984933301504 1.128880952832361 -10.243704926429197
-17.425072469306798 1.123983664505849 -10.239733100181596
-17.369267694214837 1.117225800502366 -10.23150766212921
-17.30165210605541 1.1069034251188659 -10.213911653934804
-17.22794621899976 1.0886402526624837 -10.188240445789459
-17.162051116083465 1.0855388508372856 -10.159648573717151
-17.07110492708402 1.097674697395526 -10.11413614196451
-17.016600921102704 1.0979728360899832 -10.08145795183465
-16.931806930855096 1.1019205952853417 -10.026681459171321
-16.85781390359096 1.107152097565523 -9.974807578131657
-16.778015241596403 1.1020396005328017 -9.915024166731008
-16.728763265530535 1.0989134114542352 -9.876892607019737
-16.686241360734627 1.0967126950567823 -9.843909693684438
-16.64175036352254 1.0943799205711797 -9.808314421948936
-16.600410631671377 1.0937020827295407 -9.775058904471198
-16.555202474769445 1.0909404985516467 -9.738314834390225
-16.48528037104715 1.0860748608402784 -9.680546482068532
-16.44388988557809 1.088260193967538 -9.645647211598579
-16.401579113179206 1.0883990843040383 -9.610965291190869
-16.33525110903153 1.0866868482318084 -9.554931147955704
-16.289735637884952 1.07567785574867 -9.514051830148007
-16.236310145499296 1.076502732454804 -9.469484296225563
-16.17711673275739 1.0742781359586537 -9.417409437727837
-16.124096591235954 1.0734345801896241 -9.370389729885744
-16.069532700686192 1.0655259538865378 -9.322287887369026
-15.996474915077112 1.0541484336853642 -9.256328688034685
-15.96271393472242 1.0500188701992608 -9.22560143440094
-15.922734666553296 1.0451285455121186 -9.189214668807832
-15.867099729469277 1.0414064739750757 -9.138610476870499
-15.82943087149297 1.0396644828034516 -9.103991664497954
-15.791671076898076 1.034783362714716 -9.069388269282816
-15.7541211274986 1.028727921218862 -9.034061169139894
-15.70644779196785 1.02699160560462 -8.989764021536613
-15.618184668930674 1.0302389121817028 -8.90780631811795
-15.565729737782558 1.0244242254139853 -8.857603026504396
-15.52796472856658 1.0199752873615202 -8.821392400786907
-15.491317095294324 1.0204195606150301 -8.786380202325489
-15.453283974771189 1.021438385207736 -8.749669888829864
-15.415905338188821 1.0218857101946692 -8.713835502430543
-15.378650711513675 1.0242583702138477 -8.678045199849224
-15.34171731584439 1.0256500784426805 -8.642009612930716
-15.305064405194647 1.025887908092694 -8.60556249990454
-15.249270097468884 1.0256501632035615 -8.550746172514508
-15.195193780072124 1.027106411299104 -8.497190816710106
-15.159301202810155 1.029572409485179 -8.461296891888464
-15.123816895636633 1.0333453147505067 -8.4256749085536
-15.071231428734961 1.039169375162178 -8.372335672232785
-15.019333471786814 1.045588938130244 -8.319304499346247
-14.969056437263934 1.050789379940018 -8.267311039776787
-14.894560951692434 1.0576952644334439 -8.188984713426795
-14.837141204586269 1.068089810951155 -8.12863395205339
-14.799994349741954 1.0854475270253945 -8.087506809138567
-14.750056420219902 1.0934475351568724 -8.03296465734696
-14.673748926113232 1.085687687043517 -7.947737098200864
-14.610108428498435 1.0927306040802924 -7.874459071699588
-14.569355394039876 1.0955291589314355 -7.827060595045726
-14.511804251774535 1.1094771773035528 -7.7579898771661355
-14.47352152472753 1.1109262045997008 -7.710650505137377
-14.436458539718526 1.1120383671211762 -7.66407973197764
-14.405536945055923 1.1167534869925007 -7.6244171480856675
-14.373247483736085 1.125092380716255 -7.581036939353929
-14.342231172611715 1.1331282209652302 -7.538023857342385
-14.312371085118144 1.1425990145184621 -7.496227926121003
-14.279878565133062 1.1551912049318842 -7.449310340988193
-14.251137000088395 1.1733942717481973 -7.4065051439488006
-14.22330385063955 1.1927959399800139 -7.3641508797092765
-14.194920708653568 1.208482577020634 -7.319946403615386
-14.149956486973469 1.2335839867103937 -7.246179574521868
-14.113402836821864 1.2415769154261076 -7.188151252826671
-14.08178312079561 1.2613688234664644 -7.131678209776245
-14.04521654844495 1.287365776459568 -7.064447733153804
-14.013739036845363 1.309206680477427 -7.0045400209614925
-13.976636918617476 1.324049904779228 -6.930502611546219
-13.929217869337936 1.3455780717424368 -6.829146787145593
-13.895194023352989 1.376552073824678 -6.746342718321603
-13.867493579336262 1.3947247873240716 -6.677715101596826
-13.845671442141333 1.4073155127772499 -6.619835825074855
-13.828490790579059 1.417498335000019 -6.570178249743588
-13.801273736917729 1.4414337623007736 -6.482048250770429
-13.775468442319141 1.4565553027254756 -6.392693044910722
-13.761252755707972 1.4750473398634871 -6.334339841674485
-13.745902761155302 1.4993929977681058 -6.264777946215574
-13.724305857788181 1.5374243247983173 -6.148247963915528
-13.71254877169837 1.5566642812391023 -6.067632098928074
-13.706016445757895 1.568135746081155 -6.014714130086202
-13.699238121928904 1.5844693601411852 -5.946892498421175
-13.691983498048506 1.6108779419687973 -5.835229732004818
-13.69070133378998 1.6149852734423016 -5.793025634596311
-13.68901507123304 1.620388290196757 -5.737507972615967
-13.689279388711787 1.6324517787709876 -5.632163144246976
-13.6906709643842 1.6355017528166937 -5.57769501374611
-13.693932981825219 1.638425988704356 -5.514355962518635
-13.701098205137788 1.6422707846245066 -5.428516522555567
-13.709549209330056 1.645832466816454 -5.355726142998611
-13.722725191816807 1.6520027379831885 -5.270355147683304
-13.735025947670875 1.654138221512119 -5.204966520430385
-13.748645592288115 1.661574959421602 -5.13984217062286
-13.769739772922836 1.669593698492121 -5.052722816273244
-13.794266219767588 1.6804452744837401 -4.964270643192343
-13.815697794266098 1.6931073159996721 -4.893462634132424
-13.836604907556753 1.7088746740050016 -4.829985974027364
-13.854406975309283 1.726127543546429 -4.779411229898463
-13.867050747491305 1.737724810327069 -4.744356668289897
-13.88513703958578 1.7543125676817306 -4.694218118950813
-13.90870470044454 1.7739115342239713 -4.638199035985771
-13.933908174312164 1.7936776610231875 -4.57797097333758
-13.965196646375112 1.8277617734468923 -4.507746341872866
-13.986734104974385 1.8495605930275687 -4.460693495276724
-14.010472785992294 1.8708067741562768 -4.410634445279615
-14.056306024447059 1.8972596050075616 -4.319781882117022
-14.10368441741131 1.9256953733027953 -4.231798467159554
-14.136799734611548 1.9476505801185926 -4.172738109883717
-14.177352862638838 1.9746605270186097 -4.103150244340437
-14.205106173423008 1.9917359387175013 -4.0576598703047075
-14.244145658267762 2.0057949044096572 -3.995484228176221
-14.288685409783554 2.017033728755554 -3.927820623972898
-14.338127630193435 2.03767581769066 -3.855903777201422
-14.380585495413692 2.0456214405825985 -3.7969867794923107
-14.416687397504424 2.049347526238351 -3.748743381031408
-14.461557645292837 2.043736971172619 -3.691640369897701
-14.503089582418793 2.0405210994355825 -3.6410080596048626
-14.54840491507429 2.0395813872477166 -3.5873720597777266
-14.593999311651125 2.044025664992318 -3.5380290707282356
-14.63609288267031 2.049108362792737 -3.4945710520587765
-14.684550800578213 2.0226275013530115 -3.449981627933513
-14.733263352138627 2.0381442932636205 -3.400753306657496
-14.778815739156194 2.0465734094538504 -3.3605794201880816
-14.852681954186323 2.040653148743364 -3.297185676480632
-14.910165897725292 2.0405717009895907 -3.250789675594797
-14.965474633244996 2.053706728530292 -3.2079201469209995
-15.023683090555066 2.0689184136100875 -3.1646380493695556
-15.12289004461999 2.0786883795791327 -3.0941583790235043
-15.196340383578034 2.1033806275166875 -3.044687633852825
-15.281166656906962 2.12378006384844 -2.990153045659862
-15.347352934095058 2.1377128139640558 -2.949193762934973
-15.411955950447293 2.146296568620135 -2.909642636971266
-15.473168154931276 2.156106158950296 -2.8734627868181613
-15.540062965978287 2.18253657801722 -2.8356638772931517
-15.602560841971975 2.201809714954064 -2.8006859685355763
-15.694441209589385 2.230052265129868 -2.750838869146954
-15.782734198630646 2.2306459609418434 -2.703020806212368
-15.835205101618847 2.228277426808261 -2.6748547496378228
-15.909272025674081 2.242682044999172 -2.6367505247618865
-15.967497471011967 2.2567796177808934 -2.607237949346186
-16.024771763335394 2.27320193375258 -2.578632401832706
-16.081002591912007 2.2932784362964123 -2.551072447005264
-16.147697231943862 2.315247018348136 -2.5186464531462542
-16.19159323320544 2.3283872746748577 -2.4970785322763054
-16.252118098005194 2.344202997350109 -2.467881299088951
-16.30711456434443 2.3621560993822257 -2.4418944574008163
-16.36836384418572 2.382853404946823 -2.4151811270769232
-16.43041058701771 2.3994824864259434 -2.390024518349139
-16.498308649404258 2.4113679184537795 -2.3643895969295667
-16.553472234706835 2.4293797472491945 -2.3456534316193967
-16.625438047806334 2.4568209302331545 -2.3231341976021773
-16.692487233829617 2.4879985104994446 -2.304595947971421
-16.757415058458385 2.516178273634889 -2.287748814324525
-16.836893211095926 2.5524757790461994 -2.269155548666979
-16.896688058208852 2.577977824353242 -2.255409402739911
-16.9633972483314 2.6035860466917233 -2.2411048534343623
-17.03503797807172 2.6292051074172793 -2.225799400474984
-17.139618475281264 2.662841818521306 -2.2037290378513497
-17.202645912377513 2.682119848715189 -2.190062316043389
-17.26578422036995 2.6998893286407966 -2.175514927110191
-17.351917888211656 2.722923028898416 -2.1555549815127124
-17.413650418363783 2.73859522589436 -2.1401979139383065
-17.476994914116535 2.753079494597678 -2.12354855963508
-17.538342640747395 2.767408954496191 -2.1058007606660305
-17.60093186724583 2.783340078588735 -2.086690783672605
-17.66459035474988 2.798836764958929 -2.066489666099415
-17.727978389870987 2.8152689886354594 -2.0441182427723157
-17.791758032779406 2.831420173875502 -2.0198708679729975
-17.856078397389062 2.848984908137642 -1.9934897566446361
-17.91836355118395 2.866543878425435 -1.9657987870232732
-17.992119385830236 2.8837150546613297 -1.9299556366174502
-18.05484340027752 2.8977217798183825 -1.8978605988409925
-18.129157348932026 2.914604110304156 -1.8566986871867923
-18.186331952464737 2.927664304593219 -1.824195379846147
-18.235740295464506 2.9390535999627194 -1.7940689657153894
-18.28898726311481 2.950542336319364 -1.7618762473999936
-18.37348614654897 2.967172532318309 -1.7083645505332932
-18.43320406064833 2.977198647864904 -1.6697067917288848
-18.492972649814362 2.985931495320235 -1.6303551694325058
-18.572120106234383 2.999134250481033 -1.5764047421817646
-18.648863971423136 3.011406105709029 -1.5253891312824484
-18.730208537645744 3.011555420885367 -1.4709731568812885
-18.78392565898305 3.0123646423721704 -1.4355069234052826
-18.83690909680292 3.014311157869255 -1.4004919242846738
-18.9054021720249 3.0243101998319815 -1.3533501836972963
-18.954619123083642 3.029787571532636 -1.320398601041805
-19.012996098492682 3.050860658641973 -1.2799875560724838
-19.066978415636267 3.0554021114425853 -1.245023429088565
-19.109685723055698 3.072364054513603 -1.2154996728109349
-19.166548971611785 3.0763452099411404 -1.1800771765970488
-19.22055827290477 3.101256862876306 -1.1431512329983977
-19.28396975472859 3.1146269286395736 -1.103595667380452
-19.32950314709409 3.1244884861139295 -1.0757626023643805
-19.413004644897065 3.139660084366216 -1.0275046586810928
-19.505701382744327 3.143123312409331 -0.9792431025808888
-19.566000055704368 3.146607559064418 -0.9501812234628952
-19.6524785238494 3.167212708743639 -0.9100594186862381
-19.708621306395166 3.1861467084979678 -0.8862247399228773
-19.786901481146632 3.205455197664681 -0.858512672627012
-19.856975876804338 3.218442001787906 -0.8388161412242714
-19.949475025728105 3.2358978806063456 -0.8151006525070121
