260
-6.751126152237223 5.9512921691838345 21.12379342666275
-6.798464549922956 5.914238751150377 21.070037324681554
-6.828230472978468 5.8892085133719085 21.03048057547012
-6.877462161509719 5.84035176187838 20.981393285681822
-6.933867405547425 5.774942050612338 20.932770728266913
-6.967054236702996 5.741599120278899 20.887668262046997
-7.00607419058143 5.696942153621122 20.83967362521415
-7.033953019694701 5.660886150708445 20.808445873778243
-7.072193575697723 5.616329096150506 20.747061353316628
-7.090448868426543 5.6070216513344615 20.67788988933525
-7.136733993567518 5.579441689303624 20.59545804022244
-7.1798222325368295 5.520498745192974 20.53436934252668
-7.225536340733274 5.462382588309589 20.4773766980313
-7.268545955157117 5.408513990416396 20.42795228824251
-7.316132487629536 5.334311075930403 20.394838148714335
-7.384547045107871 5.218675182599003 20.377508533224688
-7.443138816916271 5.108847026895572 20.373247280261147
-7.473330664133818 5.026399641329281 20.378819001458947
-7.493670291471197 4.95795690996769 20.418579493956578
-7.51008822232147 4.891434131220353 20.46164159490527
-7.522480965536545 4.847713332059311 20.49729236542312
-7.539609420678685 4.786019912030464 20.53998746239027
-7.55667686281744 4.713499824989821 20.5705496700129
-7.568071541378165 4.661105015226587 20.58812022678263
-7.578094938359349 4.611878176657687 20.602107266656304
-7.590043816380675 4.541392249100557 20.61769703530239
-7.599151583471581 4.458902568893455 20.62915619399534
-7.60219800539226 4.3934502990182835 20.63033446556232
-7.602082068622441 4.340274912989344 20.627499643876607
-7.602286803744365 4.249457342114312 20.625249818435318
-7.6026504057646385 4.194449246448198 20.628262686591487
-7.605517082327152 4.09408001641059 20.639719412923505
-7.60636677657458 4.009559250359411 20.64371706422095
-7.609521956577878 3.9367589602661477 20.65491378622467
-7.61053660015197 3.872056428498352 20.66156577268895
-7.620477833140769 3.8063698480526513 20.68490626071601
-7.632995920905675 3.7420334836358613 20.713894222426948
-7.648581243419216 3.664406483049767 20.746003732769918
-7.6622537042544625 3.584480455623086 20.769584387388516
-7.674735957377358 3.517142952401434 20.789140197073095
-7.688582364495046 3.429457940993867 20.80891161728328
-7.696152125629271 3.3758889328448873 20.818623507578675
-7.699133909009815 3.307731162705521 20.813662091955052
-7.704756948753165 3.2088799749831605 20.807189871546946
-7.711190158194491 3.110279013936822 20.80344986172543
-7.715504076408262 3.0102897180683996 20.790621528552695
-7.717848770897842 2.9274380377286766 20.77440328330546
-7.720291405310306 2.8314649164710954 20.752716783479855
-7.720708192058405 2.750722622648423 20.72872443866066
-7.727002168151091 2.6542085995881433 20.71987702713601
-7.730416450895009 2.577851138823425 20.707745276294126
-7.73354210011066 2.501645897436277 20.696191447175284
-7.734579889065447 2.4387758923987786 20.681784901652225
-7.734506932540959 2.3737935505686627 20.664632609149283
-7.733256358659535 2.3119015679423733 20.64579590795527
-7.721629976916182 2.219656435267351 20.581040221036645
-7.7139247324510904 2.1648792525634177 20.545632780552552
-7.703167008063314 2.110441839243997 20.502757222090064
-7.68839726458719 2.071165386971762 20.429433108481806
-7.680953173728751 2.0319001476555743 20.387269398456336
-7.672700306806099 1.9856441611574946 20.331283610697447
-7.662674308554815 1.9410566426545555 20.260278626281846
-7.655524640342105 1.9131076137964471 20.208756074934005
-7.640918357686825 1.8871122255410233 20.108242566210944
-7.629481559390182 1.8457856712661256 20.040658750134085
-7.6165637592532365 1.8073589687051972 19.97592710912831
-7.603273767209858 1.7844281931035635 19.912804741729484
-7.586815204734503 1.7640510052764684 19.839763899928286
-7.56890209563709 1.7543947936608824 19.76341608361753
-7.551266208602929 1.760578628139239 19.687496515003286
-7.534360265449559 1.7636896680142273 19.621367499288493
-7.510352423524941 1.761381277881327 19.541808007491134
-7.487649374350851 1.7649044372600078 19.4703879234507
-7.465310733221717 1.7604251763090413 19.41251235999914
-7.4363189054086165 1.7656086979781564 19.33697666583679
-7.401414460660421 1.7791515972539274 19.251727760375477
-7.382577235700003 1.7834614371736341 19.211993425945046
-7.352768429425251 1.7898099963816514 19.153520845161488
-7.309266499345648 1.8042435354196593 19.0741856455357
-7.269624999519369 1.8209734554484789 19.009265119567544
-7.239043367878741 1.8317448658574373 18.964416698644868
-7.188523908825617 1.8421068884214122 18.903044706906076
-7.119436948526543 1.850037233038348 18.835420582030107
-7.061186261246964 1.8425689369797662 18.791071753898024
-7.016230188328629 1.831265127151509 18.761530078375902
-6.963091679733921 1.8184838765932625 18.732140009253918
-6.8995308839297325 1.7904240452151767 18.70225588345737
-6.815450319134497 1.7494397809819007 18.669921623681493
-6.765531456478776 1.7271072279050679 18.65142678344541
-6.709830517947525 1.7020013395963072 18.632135266606568
-6.62531400180967 1.656608616994533 18.60968175157465
-6.551246552903603 1.6219895151785115 18.58874327372758
-6.459935222993254 1.5496779771935696 18.579516370035055
-6.379569637510608 1.4858922705812345 18.576114719300396
-6.307832923180723 1.4558318100162957 18.55930041371798
-6.247846284235225 1.4323645124167133 18.545913206733214
-6.151735556933608 1.4390257097104509 18.504602324053035
-6.086844766437601 1.4240859276435502 18.487041571128657
-5.993455795266236 1.419822513230168 18.45585004005133
-5.89537387901828 1.386775462760995 18.437892000767413
-5.834363694353657 1.3763735480071508 18.42295844745398
-5.761954421008031 1.3811768997698772 18.397137409698743
-5.6994258641091795 1.3745677278335084 18.381278574242728
-5.620041952003813 1.3815446681297732 18.354006760282648
-5.551018104184447 1.3890367981765372 18.330543167182135
-5.482642913382799 1.3940483074442196 18.309184922924903
-5.409192036467701 1.3990110590148999 18.287763936941055
-5.349310369719337 1.405281973368254 18.27017140950167
-5.284448415011366 1.4145724487261515 18.249785560594695
-5.206321381776347 1.422518845735135 18.228487391939616
-5.155099421643658 1.4335556958299707 18.21275925819916
-5.100144113500862 1.4419683781957384 18.197860578361595
-5.042432055347069 1.4516624454573148 18.18260936353799
-4.987019611413108 1.4599782105815846 18.169852292629873
-4.93702746747207 1.4655662788263313 18.159940499837045
-4.869875556236598 1.478511772235224 18.14575201567638
-4.79165061184979 1.4935741126089832 18.131641463812105
-4.724240261742006 1.4977184685996532 18.128499455893547
-4.669068163461637 1.5142264925034223 18.118477609847567
-4.589800320279772 1.5446293289315198 18.10480186525771
-4.52608422280863 1.56249482836107 18.100044413512865
-4.435947515751594 1.5824352256894905 18.100644071300515
-4.352205755124048 1.6169963996703647 18.096211267140493
-4.271179118382878 1.6536357100185768 18.093960914169333
-4.208613123655233 1.6902805823563334 18.08937307452155
-4.166203014491308 1.7262250801437613 18.08024325035816
-4.124301017843909 1.7642844856109599 18.070328270797752
-4.082403851844588 1.79561616772749 18.065500469187075
-4.003393851759535 1.8602411177595903 18.053057324094617
-3.922126879806159 1.8820250027402152 18.079034404544522
-3.8491168181705193 1.9051226238299832 18.102690872455316
-3.7595118585601544 1.9397152764460501 18.132030349168428
-3.648924069308986 1.9761830900193913 18.180517681113997
-3.57828089292071 2.000144343322698 18.215194285816455
-3.5151047375271025 2.005818780382624 18.26287590916137
-3.4759384914884475 2.002228170390696 18.30142489401354
-3.415191895715137 2.0204978803831195 18.337159416529225
-3.370191316957472 2.0149901657383906 18.3859958673805
-3.3209651898248067 2.031260162430692 18.419526122382706
-3.2544566247511657 2.0608941168543424 18.46232094347975
-3.186534830705816 2.082932756580073 18.52535109770281
-3.1487313509782338 2.100588325752867 18.557566475978305
-3.1133985255710517 2.1217561616898144 18.586481330035063
-3.068922167968278 2.1434678481469938 18.630609801956027
-3.023204404144038 2.163187125138624 18.683363442227726
-2.994370445173054 2.1653713662761866 18.72750778903626
-2.962546398945519 2.163526156151135 18.779023953423298
-2.9234126840030585 2.1882514726324405 18.827646913349707
-2.8841625741374965 2.215066603217486 18.882321316596773
-2.8542085564545427 2.2038916314788244 18.946187497795055
-2.8082981158755187 2.2077032516845114 19.036376681300684
-2.7738937724039605 2.204790313718882 19.111335754604347
-2.74081555656588 2.1962630499677216 19.187452727801727
-2.716064972064892 2.200867648360754 19.238638156501207
-2.6560769034399403 2.203562185177878 19.372821391340565
-2.6255554218225825 2.2246675347621627 19.43247062938354
-2.58435790734434 2.264370311186481 19.509896083367607
-2.561205500221301 2.2961877208755155 19.54828516321519
-2.541833721193319 2.341234066784825 19.57305940567023
-2.5137966859081127 2.3877662154755805 19.617726221788782
-2.4841715052014965 2.4617491893719294 19.663541132749913
-2.4688812175902797 2.52537747102414 19.68075722465522
-2.4569634389758006 2.5841411334369595 19.697694948199217
-2.4483639928619274 2.6367454182215018 19.713525267627315
-2.441556154678162 2.7052002939422763 19.732858904192973
-2.436957289470861 2.8036424794089796 19.779690053479733
-2.438152338321432 2.856656006512091 19.814456502458167
-2.4416077979635107 2.9002886441661904 19.84372436465685
-2.451036185818772 2.9750659890878626 19.871664171627863
-2.4635645023653705 3.047154416136797 19.897874021345388
-2.4813450589135293 3.131456363968073 19.934521622124382
-2.4951701625319505 3.1853891221708275 19.96021047747867
-2.5139066708186384 3.244956611738054 20.01121318864352
-2.535163681610001 3.300903628207619 20.060480935230014
-2.5572136204275075 3.358519161248531 20.10382314489219
-2.574559291776512 3.40010648778851 20.137421317145954
-2.6046599613341055 3.4700269354815387 20.18833511228976
-2.640502603238625 3.5371075907472345 20.263289734791872
-2.67345956039781 3.598387976182818 20.32807443484927
-2.6966498988975545 3.6497650777243646 20.36071825791208
-2.724449443659089 3.706872156946619 20.404086597826975
-2.7566941764682973 3.7729992143240167 20.453149089611784
-2.774851615848468 3.8184516998597235 20.47165984410181
-2.8133760525944407 3.8899521316366448 20.537490876868993
-2.8519971984343675 3.9775975847322105 20.587490296703177
-2.902417115594468 4.0624536081622935 20.67478998171892
-2.9351252893483393 4.0985263698524586 20.748850186479995
-2.9648588452341684 4.129018638470734 20.813953036684687
-3.0003595976241337 4.166502885375284 20.88844740464449
-3.0409312631515473 4.202692125925363 20.97544067446002
-3.068241084477237 4.234964422287124 21.025949701717405
-3.0948901799394424 4.26206328464286 21.079780167645747
-3.1231299142612334 4.297834420261983 21.129597150226918
-3.1511421280718865 4.335645248221754 21.177355873054083
-3.1757659780822864 4.387904176294086 21.209648668309004
-3.1927192411624423 4.434156745292787 21.226330799461696
-3.221454961277094 4.48535544889271 21.269019595060332
-3.244388937957078 4.53065685076003 21.3028045787495
-3.272640318140823 4.582749773729822 21.34645911385808
-3.3014726404863337 4.645642099947565 21.388421082333203
-3.3187161129882794 4.686069264213118 21.412894623614317
-3.3435092042033405 4.7445716927606245 21.448319471632395
-3.3721898199113847 4.8312669970058355 21.4842196099178
-3.4030818600424837 4.906149359417025 21.52732966266043
-3.424951326247508 4.95705011683514 21.555729438971525
-3.4470066017773453 5.007867675552231 21.58333696021664
-3.4688530584121615 5.088818216677187 21.603573469905804
-3.488496887226563 5.136781708569085 21.624934424551988
-3.5151657927778377 5.193548662820698 21.652674360079743
-3.535865566569644 5.239143871515736 21.671659756340695
-3.565990100027448 5.294280645778612 21.697235565365226
-3.618845023287215 5.363708468031993 21.742107112518095
-3.6457180877501676 5.4024577975990224 21.759783246923423
-3.6860848430344726 5.456782351705894 21.782109514829898
-3.753319921331687 5.517161832361767 21.817210196653853
-3.8023158603929286 5.552023835629647 21.8389443682315
-3.84420404537137 5.582052986729758 21.851859414313413
-3.897176774996982 5.621721447425933 21.862695795867495
-3.9706039303683127 5.650626417793733 21.879895300204268
-4.0283297305535 5.674990812456565 21.88670117640243
-4.121364120373594 5.709510528066784 21.893341070453662
-4.1748134714880605 5.730627780973711 21.891670818964695
-4.277291811654923 5.762354756471857 21.8866858599209
-4.353469277314266 5.795032587662378 21.873069599331053
-4.420297383464665 5.816024036847834 21.86434488143878
-4.493533189686913 5.828502187508479 21.860638609220654
-4.581880923897272 5.849425265331751 21.85174508835194
-4.6544216575933515 5.881220250363691 21.83445256122416
-4.740960956110153 5.926420659257611 21.81122572073258
-4.812700663976139 5.945131085372871 21.807164101708565
-4.898254187512857 5.971805184288034 21.79965117241901
-4.953424112134676 5.986236547122348 21.796455095837047
-5.015975966090638 5.996824876892981 21.796842649883345
-5.113318846247643 6.01158679287169 21.798367681031017
-5.175047759390247 6.018564886820875 21.800999591814243
-5.261532399030658 6.010481473989019 21.81741067029318
-5.348586258004798 6.021247520194887 21.82020566913136
-5.4402747935685225 6.035130713959838 21.817078736204678
-5.510521033988125 6.0533941345658695 21.808375168878662
-5.5701328535314545 6.075540557574391 21.792510906306145
-5.617924479647511 6.094283332048331 21.777018412650513
-5.682492611010208 6.132262407425982 21.743714767970282
-5.7398117569997185 6.154975661243841 21.72096724075872
-5.795977484606779 6.172879657223736 21.700023494716277
-5.846009763119586 6.186727983072131 21.68312989189766
-5.910253202044117 6.177895470581764 21.68029246673034
-5.959778396460418 6.184889619057303 21.662057353947652
-6.028766469032524 6.184235633248615 21.642669403403303
-6.101688412488217 6.1827815366193475 21.617774759985945
-6.162090410871471 6.179180214000172 21.5941326685576
-6.223681164207036 6.175416565712636 21.563791060373084
-6.280923830999815 6.16602900820689 21.535908227994742
-6.335176292762419 6.152695291439517 21.50755130553565
-6.386801687538499 6.138651698763796 21.47403066754674
-6.45168132501717 6.11743859578472 21.42641216149052
-6.517122643067925 6.091724959740312 21.367878073041233
-6.566693468882792 6.067929172624309 21.32134672315303
-6.619114331552109 6.040679819944757 21.26989718881184
-6.666665626883283 6.012490587359708 21.218303877335607
-6.7205204840909065 5.976222668940223 21.15812334777831
