325
-7.697577792102621 2.905962277391099 -10.015900094614263
-7.729285979526427 2.9634677262959483 -10.068820026201184
-7.758961956701349 3.0077074876519143 -10.123917721912616
-7.778364055124985 3.0387914007637447 -10.161495721977822
-7.797900518071248 3.0695025088516363 -10.202235974036022
-7.828164181070246 3.1221946531400446 -10.269360027530016
-7.846759213018785 3.154625118337182 -10.31483743503361
-7.875113156093597 3.218497990806946 -10.390341813350027
-7.893411298030326 3.272834741670131 -10.445457291961606
-7.908016332613428 3.3195938531506695 -10.495172624179713
-7.923806738689347 3.3592329885273644 -10.557737254110808
-7.9366025369507796 3.382474910331795 -10.614312983957046
-7.947669245748678 3.404198968677796 -10.671630086526207
-7.957290787742242 3.426959920249228 -10.727330655309853
-7.965564581307767 3.4467300884488026 -10.784258266243874
-7.973741598961759 3.4696327317229336 -10.84815158761344
-7.978580517798065 3.493322416243549 -10.897887855934936
-7.987114186003652 3.5409644978355885 -10.995640414448918
-7.99073825119736 3.5826381254488036 -11.06155895359909
-7.993259457468877 3.6159796657975134 -11.115735047954772
-7.995776974030747 3.637113085116824 -11.1612231303883
-7.999732584460581 3.67822352555119 -11.247299158833052
-8.001287114942087 3.733332317150789 -11.327572845819727
-8.001444912045322 3.7712472244331847 -11.373246404715019
-8.001554506905133 3.7975272254419066 -11.404903954114829
-8.001110840457518 3.8538820162247465 -11.46188372758423
-7.996378103758762 3.9082477057483302 -11.515272244331715
-7.993073727495673 3.9537463756808213 -11.552674620433745
-7.987380054177905 4.015521677936582 -11.604109918534007
-7.982362720168172 4.059629740606343 -11.641995765491888
-7.970894024820616 4.144061243941017 -11.712310370571867
-7.961185821969181 4.20734326639428 -11.75655908342275
-7.948449984599105 4.274175486636651 -11.809118677911062
-7.9365786383720724 4.333693980410822 -11.848893741168851
-7.916322093614628 4.418246794244867 -11.908792586278665
-7.901750029105958 4.464746195380381 -11.951498353249221
-7.885721885335236 4.510572950865064 -11.996838744553742
-7.867898440974351 4.55847505200036 -12.040595665230807
-7.847995943875514 4.608544026302373 -12.08240852064447
-7.8222106087734105 4.666518132162717 -12.13323053970997
-7.792997798786086 4.721934547793579 -12.18755433727421
-7.750426807040711 4.7884846073213145 -12.260577127795067
-7.70605250265416 4.851618955268235 -12.329301211262397
-7.660606442199487 4.9297898518580805 -12.380485677540271
-7.61590662751254 4.987925896818976 -12.436476414366417
-7.586104074457758 5.0207595635919615 -12.4752030479885
-7.547880239640218 5.059520477297702 -12.523476796160246
-7.506651404442827 5.102076374613797 -12.572271615500412
-7.467206812192654 5.146260392733187 -12.614419206088886
-7.426335975321209 5.189395626631259 -12.655964271010905
-7.365141190136022 5.2469906238594595 -12.718623637510728
-7.340802860178044 5.270323488893539 -12.741580998971187
-7.316437611043938 5.293683128338842 -12.764565922968039
-7.278000904566245 5.327054133851152 -12.800163459686683
-7.220258862971519 5.361978208592425 -12.859966128686903
-7.1805775159084035 5.388669047807663 -12.897452008726521
-7.119560679651151 5.4367522486143995 -12.946095967244656
-7.048263603056768 5.474404849554742 -13.00889905546493
-6.973481669620405 5.50931461498418 -13.07147233634132
-6.912516929502559 5.537783391526177 -13.116697835552582
-6.8481185515961975 5.564283519692931 -13.161635570841579
-6.781649618684892 5.578608933103516 -13.211984785156062
-6.702338266899137 5.594979456847171 -13.266222163585883
-6.609714015709276 5.615602815390306 -13.321952027162048
-6.55077341848256 5.6310973900879455 -13.35297328710418
-6.490954017936346 5.65286019442502 -13.37883317644593
-6.432318654976676 5.67555418732672 -13.401410649046433
-6.366340509634902 5.70357576879747 -13.42320104559139
-6.306521057195294 5.723906357117417 -13.441898094958777
-6.238783201754293 5.7412964716536825 -13.46116465560159
-6.184865424431379 5.748150911419626 -13.47631571291176
-6.135832893062213 5.748372814178732 -13.489508328406966
-6.065989173040112 5.7516200563641435 -13.503729170533607
-5.9753026809015815 5.748207359826929 -13.51914743586092
-5.862177791512849 5.760380799129368 -13.526682343004634
-5.781477884824799 5.766590317252166 -13.52777454559989
-5.708351288569759 5.761206288227554 -13.527410738935515
-5.639027616534905 5.739280311430362 -13.526550149281132
-5.580785363271671 5.72726448765066 -13.523722928393191
-5.521671874014077 5.714884815519086 -13.51954830681197
-5.461443781748843 5.7054384893628916 -13.513178969679007
-5.408775042969431 5.697212551432041 -13.506579247619477
-5.359589427828565 5.681868128912279 -13.50059588698824
-5.307068487830975 5.658424554788007 -13.493985511051765
-5.246712233716973 5.638961662783445 -13.484364315677073
-5.180817029828235 5.595247060674327 -13.475448322336817
-5.121648718892573 5.552321734418075 -13.466531938202017
-5.019157961546565 5.524652110864367 -13.442320279660784
-4.9579369769946915 5.501269669765093 -13.426390469731125
-4.887992412886309 5.466436026569601 -13.407918601358173
-4.821492455741213 5.44296143793746 -13.387343247812716
-4.773491849953997 5.424876672025566 -13.371571607147036
-4.7083760366248 5.408479627170062 -13.346922197843394
-4.659304525579136 5.3990919912123205 -13.327615351009989
-4.5990646525039445 5.386439717811689 -13.301962271939853
-4.519810435967717 5.355501473188903 -13.268106296459383
-4.430581690972327 5.314167506434051 -13.227358769837824
-4.362297052185058 5.29096556275717 -13.191764630548299
-4.312382599666062 5.278968790283925 -13.163796704308108
-4.232928607056573 5.260425044955645 -13.116136399978966
-4.1822499714719825 5.243453826289323 -13.08525975008575
-4.1318169845353285 5.2218649257672505 -13.053625060239433
-4.068062474235013 5.1886444064895665 -13.013505932534457
-4.029611440591914 5.163910338346521 -12.98926260297641
-3.9709178653800983 5.117562655169858 -12.9528621486308
-3.9185305610425267 5.067717769138171 -12.918319242418661
-3.8756338297851656 5.0276045192154895 -12.89019671549078
-3.842117897771402 4.994383871766469 -12.866866295118292
-3.7996214754714757 4.952114882333469 -12.837492722779931
-3.7545481020445095 4.909062665897877 -12.804610362670175
-3.710423645025662 4.880171528051823 -12.769944127802358
-3.636284230154015 4.83859653446023 -12.708610250214967
-3.59322779089662 4.804393634089005 -12.673362073076678
-3.5595743572248484 4.776570596609475 -12.645226198803304
-3.5078718212728255 4.727295050080878 -12.601994887320085
-3.4649374179501446 4.676757733082709 -12.566335920317332
-3.4248448502326525 4.620099148626905 -12.533529982851732
-3.399634323822996 4.577749119539801 -12.513928680736953
-3.37559470897188 4.5165095633998815 -12.495934532597712
-3.349371356337958 4.455964568652353 -12.476854510903589
-3.3230415720475026 4.384551518175238 -12.457350829554873
-3.299569820788218 4.341699575996884 -12.438547669068669
-3.2586833306790126 4.284253061952612 -12.40169252394605
-3.2113484269285486 4.2330238882859685 -12.3564052795864
-3.177207776648352 4.2011580800112975 -12.322506757206405
-3.1212500015331486 4.156340849611248 -12.265237597176572
-3.054544634458475 4.133220714969357 -12.192617443277172
-2.9875005117849653 4.090475641107342 -12.119212626759698
-2.9431856997721617 4.069014291582564 -12.07000643701982
-2.893066659203594 4.0399230078015345 -12.014195546436014
-2.839876432760498 4.003877617104132 -11.954584768551637
-2.8054246113164893 3.9701835251783137 -11.915585996346206
-2.76511792925343 3.928809363236719 -11.86988777672791
-2.7077028650645083 3.8576731256163193 -11.802827491603267
-2.664693793712104 3.808507860894406 -11.750551381322978
-2.6220136368794087 3.766925009445413 -11.700875815307846
-2.5869545071063627 3.7325833349232127 -11.657631521976537
-2.544530016286089 3.6834488137627073 -11.60610189404563
-2.508671749880172 3.6571925054099195 -11.561881088352568
-2.442701022590809 3.612466867359072 -11.479153990219086
-2.416617634361911 3.5853126438923155 -11.446035967924853
-2.3687638433510294 3.5588643283879344 -11.385220995634615
-2.3039134961769623 3.5038826889547803 -11.29967251221013
-2.2686704602232624 3.4861945684549145 -11.253701232040129
-2.2324775174847034 3.473959455814291 -11.206646120273394
-2.176448315234376 3.4597951339241693 -11.132690688715282
-2.1427544319799168 3.452007243526684 -11.087337461476423
-2.1044974448697484 3.458721271597814 -11.03850113576259
-2.0648728327752455 3.453906895416136 -10.984333265473499
-2.0221025335104805 3.4684473260059736 -10.928943095409586
-1.9873992631065445 3.46932741344604 -10.88196040550406
-1.946812356936194 3.4682282476346096 -10.824972573113325
-1.9081532297575112 3.4678773569852632 -10.770797956071693
-1.872160676483844 3.4771723258442284 -10.720964145250125
-1.8286313297506727 3.481402618048027 -10.660067981030053
-1.7900498425586129 3.492134702398941 -10.60428053486853
-1.737367773063614 3.4930606581678747 -10.525694225171353
-1.6962534915833185 3.5005689239001354 -10.463005707261523
-1.6572426803724003 3.496569259206943 -10.400352371782361
-1.630053216153085 3.4995122802126 -10.356724060906139
-1.5777331556971763 3.509439977404072 -10.270919879895384
-1.5316351019748957 3.510173223709538 -10.18895980758061
-1.5032698287339183 3.507376321960419 -10.135256377888702
-1.4800157805777339 3.5029068460087274 -10.088244212386865
-1.4446346739942904 3.495248594812428 -10.011730897882565
-1.4241943880488641 3.489828897495941 -9.963266386304749
-1.390744895699461 3.4819084901099897 -9.878491679284362
-1.3580063636954165 3.477003384025604 -9.787962185590786
-1.335471491450381 3.470930055423686 -9.715270199255258
-1.3088884929971627 3.4902186432261706 -9.640366675397154
-1.2833727887746278 3.504662549906781 -9.55316357027965
-1.2653047585649517 3.5208772013315324 -9.485127898092973
-1.2510262825467642 3.5332790665200937 -9.425133538648414
-1.2390652625881415 3.538005917511331 -9.36288254332942
-1.2228061261314611 3.5550470201299316 -9.273984024006833
-1.213269673903655 3.5703693071918137 -9.207483503534228
-1.2039381009507473 3.5878886850597205 -9.140218092744227
-1.1970919136686131 3.608056934779695 -9.073630061327922
-1.189164552848899 3.64546588855697 -8.971230109753538
-1.1867572365757688 3.668624510279609 -8.89348480953425
-1.1867555372230818 3.710529381202586 -8.805200759401092
-1.1905859335901106 3.7365355902187334 -8.704259632891638
-1.195100952612993 3.7589548902477183 -8.639298943088932
-1.2006076123133411 3.7720489231126857 -8.57441984525233
-1.208449780899297 3.7818556800371654 -8.506387996243678
-1.2191598974224238 3.7872916172661517 -8.424179565337624
-1.2248992456918124 3.783322040923508 -8.371730113226125
-1.2345311523423366 3.7796981431640875 -8.310484607372615
-1.2485200396193807 3.7824269954304937 -8.237844531599244
-1.261941918257353 3.7840382850319987 -8.175268779273893
-1.2761067758513338 3.7856482140006937 -8.113456251448294
-1.2921688812951473 3.7897224159971863 -8.052186256791742
-1.3105042671759808 3.7944817796258237 -7.991115026322767
-1.3364077395912535 3.7988938290012433 -7.911016454136853
-1.3619030567451968 3.7995475418865103 -7.835806476172962
-1.389333565593427 3.8061037600381935 -7.76422387320045
-1.4194167560928843 3.8163343780041474 -7.691803990811
-1.4435209410083871 3.8225550929598526 -7.635734711493161
-1.4716056846476668 3.8225525320962985 -7.570380231289366
-1.497498283407527 3.8242286013123854 -7.513630714799049
-1.5264404292458416 3.825353519032851 -7.452582203899414
-1.5635582201049694 3.8171330266969816 -7.374123314492127
-1.5867343411017014 3.81459186739953 -7.329118832325509
-1.612240287927312 3.81779537185057 -7.283536166037738
-1.6446674079995685 3.831755225905318 -7.230477933336942
-1.676990446519211 3.8292494227996876 -7.174543740302486
-1.716348781515805 3.825549914160746 -7.10920785313445
-1.758056969307253 3.8219665319494958 -7.044611644415404
-1.8001902150939149 3.8197037513691354 -6.9825181992287995
-1.854320692544718 3.8209361211009982 -6.909376997654224
-1.885791181726189 3.816309101471427 -6.867862234128673
-1.9297646488431592 3.8094935065421103 -6.813081506313267
-1.9758793593577906 3.80634886219615 -6.759740966293624
-2.0171476519329534 3.8011923736492745 -6.714143031796233
-2.0586773733564936 3.791059181033983 -6.6706469994205975
-2.1484955880976813 3.77093519540733 -6.586436601473283
-2.203012822797829 3.7607663017663784 -6.541438909990582
-2.301847167825777 3.7304694002192997 -6.470027202251423
-2.3486192830138393 3.720908858511038 -6.441422105327318
-2.4017748618090557 3.707216802575659 -6.412958188766677
-2.4611952686254046 3.6898345239307346 -6.385373917499853
-2.510073801385298 3.6763147400004303 -6.366037120565833
-2.595399549321593 3.6477762438914594 -6.341169135082723
-2.664576681896479 3.599527538234467 -6.327969917021443
-2.7104276951746638 3.5698940375434125 -6.321566100979039
-2.789867254479116 3.479730933559071 -6.316486180688123
-2.8395363613716373 3.4237911364790428 -6.315339704395958
-2.8809742895203136 3.379475866255813 -6.316214936340403
-2.9381155034174498 3.3490994557610527 -6.3165520590102435
-2.995441674735071 3.322112537148521 -6.318127032977008
-3.0609495698469438 3.284874666334469 -6.322202312860762
-3.1191697844517385 3.253430718484821 -6.327479088991662
-3.2072310020575294 3.2041979109599117 -6.3379171955800135
-3.268727514636577 3.1613520339224985 -6.347103400907834
-3.3201562977970998 3.1243450320314015 -6.355399050371091
-3.3942285361986837 3.0790915187823 -6.368636953397566
-3.4362720767515817 3.0515459044973543 -6.3768580049364445
-3.501346235161762 3.0004713091514654 -6.390565320893421
-3.55519124050055 2.963279401180822 -6.401897692854504
-3.652917090890334 2.9050866733240754 -6.426575881734669
-3.71306973764713 2.8721064865896757 -6.441177136427509
-3.8040599671585067 2.821342224458128 -6.465453209799357
-3.878700242376924 2.7732855409061017 -6.486147903702415
-3.934313118123997 2.7367255934152306 -6.5031761572441535
-3.9913309233528107 2.7041297396459667 -6.519584563853247
-4.053269092465349 2.6711286841197976 -6.539055086649176
-4.1116753852577475 2.6410761407496137 -6.557907834305782
-4.171274290721874 2.6152025087600714 -6.577395292072161
-4.253959241480354 2.5785409691327272 -6.605347336986608
-4.361328910195361 2.528632279620436 -6.642583676750718
-4.410134298461463 2.496838617545504 -6.659586439206663
-4.494611153380074 2.4408870068433286 -6.689043500768516
-4.551107632142811 2.398727162288661 -6.708319938209154
-4.608007710310366 2.3619278963075194 -6.730766811078329
-4.651796593236872 2.3352247174022596 -6.7494366448088385
-4.708147281351815 2.3032257735378865 -6.775107573476912
-4.75155223068284 2.250498153198092 -6.796466490934769
-4.785310914290729 2.196540782973412 -6.815420176933138
-4.839324668883226 2.150554397423341 -6.847496273899527
-4.896402831755028 2.100571518139545 -6.884472996720209
-4.938971907383417 2.046680708155554 -6.915862418442192
-4.980311711566708 2.004160406077201 -6.947680527082017
-5.0193017298022085 1.9527879963692003 -6.981038847577846
-5.05339507901202 1.8785996844595543 -7.0159503237327066
-5.090317370553901 1.829576351998857 -7.051840585853572
-5.132720805993516 1.7737314889114746 -7.095060940677808
-5.166870544299423 1.745276744971628 -7.128644052023599
-5.215815290116424 1.7045681257131902 -7.178248683646448
-5.25194006416476 1.6824909604399778 -7.217497362570043
-5.298061355667539 1.6976288376413216 -7.252995994097688
-5.3644564886638 1.7525475621216442 -7.2985628009738335
-5.406337623257393 1.7600864795310267 -7.3376505087858455
-5.460274963531807 1.8083839179733792 -7.373500847021603
-5.511142974593243 1.849184772545395 -7.408683791515404
-5.593865181149592 1.8594976487066441 -7.477058557438276
-5.626116217920446 1.851509988818128 -7.505341797969685
-5.662416535847223 1.8425196314633618 -7.537176520995327
-5.719602526441747 1.8372536434052806 -7.586017169178451
-5.7885487775250475 1.833525884002241 -7.6448485436350175
-5.832633051507802 1.8182889851233055 -7.688336511106723
-5.873331174707765 1.8014177248509382 -7.730099030825308
-5.918456206398119 1.781244309707609 -7.779810352246898
-5.966849215529738 1.7609383992910264 -7.834929804068906
-6.005487736849513 1.7503095601367082 -7.879569491752221
-6.04504338943414 1.743438309207706 -7.925571477880766
-6.085224896146729 1.738305345352832 -7.974306397617667
-6.123589093042982 1.7379268294686048 -8.02046440191106
-6.163095820169142 1.7430224709834983 -8.067902743833045
-6.218206396867254 1.7503929581807816 -8.136523160251883
-6.251756307402841 1.7613433799375908 -8.176770733587624
-6.286723118696555 1.7724108809260004 -8.21784872801043
-6.319889875919097 1.7729868600461272 -8.26754620185313
-6.351594452286138 1.7753495181408354 -8.312744963817355
-6.408888520802215 1.7861891384698865 -8.393721873301828
-6.4465904545377075 1.8010388734032015 -8.442652353601343
-6.478067508883321 1.8084040397539205 -8.487235311100008
-6.5248869056676835 1.8176375337171526 -8.554786846381273
-6.5616309929387455 1.8268765976955859 -8.606718787191788
-6.605807351352102 1.8442496259711527 -8.665630532121607
-6.660125009378238 1.882777886619417 -8.728943400438574
-6.694287598000322 1.8993721481341783 -8.77287208463422
-6.748051993801443 1.9291444879780837 -8.840964678920042
-6.821887929425056 1.9852420798945696 -8.926871463897076
-6.862594151296683 2.0063140649184383 -8.979972764483279
-6.920428017884017 2.0324541687542705 -9.057653691002272
-6.961937453850574 2.048718050015662 -9.11494094446821
-7.014743809689982 2.0740960113393543 -9.183995188454219
-7.053232560001362 2.0902822481815644 -9.238133529167428
-7.09170528068859 2.10132109107217 -9.293323526032864
-7.14226591633253 2.1154355198591572 -9.366706263129046
-7.196119690569635 2.158037080978925 -9.431604232524307
-7.227064134390819 2.184794109673544 -9.467190162578696
-7.2782352949353 2.227570365988302 -9.531254304334553
-7.319323516657395 2.267328135224375 -9.57997173197177
-7.37197573667591 2.328347277761419 -9.639399678279798
-7.402380056592996 2.3569215359185174 -9.677940284343908
-7.431604014216887 2.3880279017883117 -9.712754847611528
-7.466005597632524 2.431701501243377 -9.753530090695197
-7.500303559483115 2.4953393691427124 -9.786082287607986
-7.535816211324054 2.5676198382150526 -9.820587968532717
-7.565819312384878 2.632426948205474 -9.849852843651345
-7.585452601558593 2.6773257713774896 -9.870162345384802
-7.615482073174761 2.744648777914928 -9.902568403939366
-7.639849101724877 2.7909113409982798 -9.934023812745124
-7.664990916980731 2.8372077035337595 -9.967589207914976
