245
-1.8867188226139273 4.59453299649638 17.526934799561154
-1.9492917396950595 4.602374465857412 17.511435818124745
-2.0126055216537155 4.607545406709098 17.494155622125792
-2.07694415997525 4.609920473445858 17.475073034242552
-2.1478299644714136 4.612063827546225 17.452411928065445
-2.216641776555428 4.609966906750783 17.429439419381012
-2.286680949093709 4.605202211026306 17.406038952851357
-2.369715987989288 4.599706069543481 17.37557799828129
-2.4260439922754147 4.594999860011629 17.35426244501067
-2.4946235720912178 4.587706552065152 17.327550407443674
-2.5673260369292032 4.57854111108731 17.29868134327965
-2.622738730680151 4.567142444676627 17.278711733027293
-2.68956728684907 4.554933153057313 17.252087829719038
-2.7379263094606907 4.5483011787653345 17.229673503489114
-2.792396465699759 4.540396504266117 17.20397915121585
-2.8484345220994554 4.538113600240797 17.170111146406725
-2.893501123824481 4.5293085600702465 17.14746320548538
-2.949012676280608 4.5162225454427345 17.117537765774518
-2.9922811697838743 4.504638279575581 17.09186413516174
-3.043929914172658 4.477388182547374 17.06678441414516
-3.10718610607569 4.432087093357517 17.03593010190138
-3.1631933152766782 4.3911024867211434 16.99674216650763
-3.210725668045728 4.349776919684686 16.95607044377632
-3.240264265002378 4.321735955383082 16.927956373878853
-3.3309534591527763 4.218263765851423 16.835597142266458
-3.3757368831068133 4.164804568373211 16.789141446683423
-3.4103283925275045 4.119670224033923 16.757015298896285
-3.45011125851521 4.072855620506386 16.709339386583427
-3.4771720415909977 4.033131417343072 16.680942600281924
-3.510099517756891 3.982185605260404 16.64310834116672
-3.5502198582285436 3.9238579525171504 16.58876246972661
-3.588751043327828 3.8693780955639676 16.528851529237325
-3.619476556975896 3.834979447416985 16.471526354739407
-3.651214864670533 3.7829104417131942 16.408042334133913
-3.674482290332654 3.75012356324799 16.355497856573876
-3.6866850273857326 3.7120077879027154 16.320223616190376
-3.70348539385589 3.649747283658245 16.261435445251
-3.722157053596672 3.616233225508756 16.18250280800661
-3.7291259030551513 3.539626293182071 16.078279670127337
-3.7316662315714 3.505605461972996 15.999388195377989
-3.7288387819073128 3.461119282680005 15.920227773382411
-3.7233880301230977 3.4025212291248597 15.858747451400344
-3.7160968305279747 3.338225385821195 15.785385406298058
-3.7086054864400415 3.285572688604219 15.71960644058839
-3.6993634739423387 3.2360804571822737 15.653608718130947
-3.689694221792455 3.179181817148174 15.592519669502906
-3.6752016189399273 3.1040699841066566 15.50714417160749
-3.6670047645342896 3.048164991128118 15.477823764742482
-3.6592657503327084 2.997563250202659 15.447898126335975
-3.6486622827609 2.933089886651561 15.401531479137418
-3.640558715537904 2.884540869842226 15.359457733488053
-3.632211292802972 2.8322620915086762 15.313967001688184
-3.6263004699323025 2.78978178472934 15.278462520575516
-3.619771454788409 2.745857101174688 15.250377639875413
-3.610184514848444 2.6772175922098427 15.225341556104098
-3.601189499108089 2.617230298490057 15.205273657252942
-3.5881264954640057 2.533439966270528 15.177880422901342
-3.579636448322753 2.48414268141169 15.166528312496823
-3.5706853012748843 2.4349713811520797 15.156583739145645
-3.5604501511217572 2.384453528161308 15.14222685102781
-3.5441946893040344 2.2877862008483154 15.10123240432294
-3.52522942702653 2.199520347128309 15.075894207978923
-3.5077533485279533 2.1351340410157196 15.069643571612417
-3.4934971447974243 2.0869789728602486 15.059203424804174
-3.4711369432128985 2.015386277326667 15.065234779522918
-3.4544004087443385 1.9373504387700207 15.06126163751033
-3.449301587085828 1.8560599453863968 15.03732941285977
-3.455436157466699 1.7648102459731572 14.967812117765863
-3.4563138257726758 1.6891027583949842 14.915221070555987
-3.448902461048635 1.6447746227422062 14.8155209145567
-3.4334038371229 1.6282980746145945 14.753767548300473
-3.3982315080485597 1.611743534557779 14.67404430769227
-3.3666494400178406 1.5959459607366888 14.62091966526491
-3.3181093734500697 1.5578538578880199 14.554317280268265
-3.2851388836039073 1.5406586124781319 14.510278716756922
-3.252927204120975 1.517618938518961 14.469421426034163
-3.2119717083394628 1.4811691711567754 14.420357050513775
-3.1480342088506506 1.4281844806535453 14.34455571109396
-3.106019287227041 1.396744123359527 14.295994716745849
-3.0632001806502496 1.3683657573332537 14.246630373988271
-3.007618649739322 1.3347198123180322 14.18035514737106
-2.953247376759367 1.319425476078731 14.116950384485698
-2.9055539581763146 1.3135555757150028 14.059228132552459
-2.8634326814243627 1.3115272373228892 14.008290807202734
-2.805754698577055 1.3197952379854536 13.937447918107779
-2.736066669485761 1.3228118178669384 13.854453088002156
-2.6699047892605856 1.3113002670146798 13.779433106992226
-2.6068128573476947 1.3085708311590531 13.70734470374109
-2.552348876624561 1.3185040255384504 13.644957218894575
-2.51972867705027 1.3243344108464434 13.606543485632418
-2.4739676961716004 1.327456424593401 13.558609383928669
-2.4168478762095615 1.3418733717057982 13.494095480083455
-2.3488574928972996 1.35656685035645 13.42095255436368
-2.2931479505343093 1.3701402522909678 13.362911413907714
-2.248732437082933 1.380448847189137 13.317982964241732
-2.20569372832572 1.3889448776268534 13.276037659522203
-2.157656420648941 1.3964618665323245 13.231182001600104
-2.1023540713853492 1.402259767003951 13.18160054462275
-2.0192907493148224 1.4059333970961498 13.109796376876542
-1.9335040048662906 1.4222668465526995 13.037831097227345
-1.877205505569738 1.4336459927208258 12.992373088086218
-1.7978603853545376 1.4417996086374227 12.930730965846474
-1.7238913802521134 1.4405180258533967 12.87503188743794
-1.65369122444862 1.4395182522260574 12.824044650275537
-1.5997530785549232 1.454382035046847 12.785993795930608
-1.557352573668994 1.4661477297885384 12.757062897395464
-1.5010378242907043 1.4812775972321282 12.720044993236236
-1.4465007669743182 1.4980404121066018 12.685769197088577
-1.3821131885254099 1.5132114812443742 12.646884148673255
-1.3264781881042156 1.534984024469801 12.616356740389088
-1.2757153908956145 1.5538721864387206 12.58848050539787
-1.2269183366383345 1.5707772730516893 12.564091662366994
-1.162665894854423 1.5868208646690904 12.53377056172627
-1.0973268995925167 1.6060738539009716 12.506832120831682
-1.0327737733198878 1.6228753948191903 12.483262076893428
-0.9839561975442672 1.632205479984429 12.468182168962475
-0.8926734817885746 1.6518850583442832 12.447187751514608
-0.8413398589779826 1.6659763976256565 12.43917466443015
-0.7719016151123164 1.6821044950776658 12.432766775371608
-0.6908364231267639 1.6964672389481406 12.429456587060253
-0.6361501210826708 1.7083440693540677 12.43088023678133
-0.5709173407145212 1.7223632729506395 12.435873570179524
-0.5064162246800583 1.733156980873857 12.444064969289638
-0.44471609736324513 1.7411671099582975 12.453428793360173
-0.38450195905469275 1.748247466278385 12.465590837971918
-0.32532190462518074 1.754089398028614 12.479541097678215
-0.2659562995256062 1.7603318663565801 12.495548647738364
-0.1959284703312667 1.7586970612815493 12.515185677777911
-0.12699391384366265 1.754937299736615 12.534980076964462
-0.022970375244398156 1.7439988226763994 12.572474407415573
0.021382902975418006 1.7392315291612697 12.596045311772851
0.06543087126970804 1.733611107395455 12.626329692358373
0.10880491515096136 1.7248533538369264 12.663405266457804
0.16349766304506286 1.7116037820875771 12.720547693470943
0.20159077519176805 1.7067229317392751 12.76868734916663
0.23502358844565308 1.7051225966687484 12.816420824091882
0.26565381679692823 1.6961835820678752 12.857335712792368
0.3261491132222263 1.6699976356239388 12.935982295031566
0.3564275480017747 1.6612946501719037 12.980867124941993
0.41106295123555636 1.6301312096331637 13.05996232914062
0.4413479542434624 1.6132511124479274 13.106881155383416
0.47385821047179455 1.595491587926368 13.159040635654602
0.5214158616324385 1.5545893295323339 13.228151798469568
0.5586626725754416 1.5338836030859788 13.291862809378898
0.594604982655671 1.517164495004577 13.356307321545355
0.6429885413893155 1.4994162073830548 13.446822133653601
0.6741167919928674 1.4838892401139052 13.503841465408406
0.71451010822953 1.4448962069259492 13.567779408283236
0.7626113626843898 1.3959631873620584 13.648710768890979
0.7950146595697838 1.3911610744268321 13.710665727722713
0.8269957013247637 1.3890792169347055 13.778665005922981
0.8580985159037837 1.3906336700264132 13.843798439303384
0.8900295081102021 1.3807910566432797 13.909119879004173
0.9268625424488519 1.3838122618642554 13.989545385995982
0.9524635641943338 1.3738413450021945 14.03905444207243
0.9867234287910129 1.3657281247112412 14.106922528568724
1.0087464173780827 1.3615466607603555 14.15169465544136
1.0456662634667273 1.3566308915698517 14.226609114922287
1.0702979378567692 1.3635510331798057 14.2815489076327
1.0920007990950147 1.3826500779834001 14.332148875436715
1.1118366847870078 1.397495213722264 14.378945447221263
1.1378311680085842 1.4080071761414557 14.432117334093736
1.167478232382106 1.4430721791557835 14.49701370181376
1.1955283565830062 1.489548682352929 14.555051628744778
1.2315118783514127 1.5385972616491088 14.62278211240093
1.2522581741442167 1.5693085128880515 14.660148989839467
1.286904675403485 1.6295275482629759 14.719979706781942
1.3295116837302379 1.676669109349458 14.795631878431315
1.355304291039214 1.7101720637912505 14.841803495897235
1.386857293937267 1.751300602093111 14.898311437843937
1.415421052159962 1.7689710281013094 14.963996554890283
1.4358148388567824 1.787002866196933 15.013333821816612
1.4597429146818337 1.8021054878957639 15.080701971059746
1.4764810343851087 1.8188740585616694 15.135128878184876
1.5035491272616817 1.8824846749100592 15.23046635203578
1.5151394480424303 1.9225606144587477 15.27985403314253
1.527577008653613 1.9875168883011654 15.366946267771976
1.5315824849197712 2.0349585580992633 15.428532712935425
1.5323871411641519 2.0714430767982073 15.464453790957162
1.5308330466117943 2.1180329387914165 15.508705129053727
1.5273354316853132 2.165098754814231 15.554566838095226
1.5202650703552996 2.2048628106892325 15.60648891509549
1.5130871157873855 2.2388227237024596 15.647990853405716
1.4992862492124592 2.3009914949803587 15.704199947306723
1.486767319792829 2.3529297070462567 15.742426665631669
1.4710676199606016 2.408548134422352 15.78416909512137
1.4532086465078726 2.4599698352601376 15.829075223937075
1.4355371783892386 2.499277622323331 15.871211659099117
1.4102866734693977 2.545768922934738 15.93001523856196
1.3855197556442702 2.586739127315056 15.981368873078846
1.3526760826965951 2.6310400271625616 16.04784940765422
1.3129677530561237 2.681277161731356 16.118942764286167
1.275686152665739 2.7237678486378956 16.181544835654524
1.2438836795389983 2.7486559254100493 16.235597805656166
1.2007608424729632 2.781956336782123 16.30301802208598
1.1607045402025675 2.81258026672639 16.36168420788186
1.1167933587683403 2.826511169414501 16.430360030306765
1.075055043120675 2.856430823001599 16.4796719481403
1.0247432122098328 2.89259365506844 16.531213074109687
0.9889643168123845 2.9393709737840394 16.554759705660757
0.920646212532513 3.0187494815841642 16.59684547326985
0.8572144779380295 3.095032621548376 16.6285573495009
0.7889159249755631 3.1653437372578654 16.665736572649102
0.7226812700823873 3.2313198731494177 16.6987138838932
0.6532823016119425 3.2798635367076576 16.743880227479902
0.6023065679205928 3.3272301445109758 16.767756690902488
0.565921632644037 3.3598981277871527 16.78454933862702
0.5292520642564984 3.392388854400198 16.801286931708358
0.4596672615906705 3.439215961170297 16.840341975336926
0.4058665895861848 3.467735726086752 16.87377273719158
0.34931413814924017 3.4943073016875683 16.91022702263999
0.27130357488739154 3.5193302690528823 16.965367479701523
0.2115539523200729 3.542306573925254 17.00472561597443
0.1598689478513995 3.5544472652328842 17.042462570205068
0.11908311129052862 3.5636845721110237 17.07126207502352
0.04059508623969332 3.5830080793877706 17.12623491049712
-0.013619584036331567 3.5826333982383245 17.168107799926418
-0.07103742100899257 3.5715333092650043 17.215936742091163
-0.15947085299560104 3.5811189631914164 17.269138194002114
-0.22180349054100823 3.6122456435860535 17.291122622865345
-0.29296129747073785 3.68119431134729 17.29341714261068
-0.35999954901279363 3.7454952910473613 17.29475211983941
-0.41857708836188934 3.808239598838041 17.29151296226138
-0.49263402704207415 3.859039618543928 17.29917203840872
-0.5375944005003772 3.894077073947349 17.30187915831743
-0.6311446703889789 3.9621882899266083 17.308203199025872
-0.7030681070923643 4.038998989862227 17.297618596633257
-0.7594431270663327 4.081581820004063 17.300547982229634
-0.8224096733266775 4.124600324585224 17.306427358354988
-0.8985481073654977 4.165374550355306 17.321447267207017
-0.9397654839766982 4.187333613143587 17.330855342833182
-0.9895866791051953 4.21387666960936 17.34222482677979
-1.046518450778989 4.251926950549006 17.35335225142931
-1.1085549077985934 4.28978310333875 17.37166563334931
-1.1593665822159789 4.314634677951202 17.394449209081788
-1.2096585353211742 4.337399533061745 17.416658309337368
-1.2598433799024091 4.351655465545023 17.445383055910685
-1.3153084753369253 4.372812582109151 17.473445957254874
-1.387579928557769 4.366116238828255 17.526548676725394
-1.4330950541029264 4.335643582524689 17.56848216967973
-1.5221573346251445 4.370595398192798 17.59305397236772
-1.592213108212655 4.437325638583848 17.58625818335593
-1.6694078366801817 4.499504987820109 17.5736984645322
-1.7420654352014049 4.548389697019603 17.55779696980675
-1.8295982629001264 4.579707072318157 17.54109401357687
