265
12.010524220737835 2.5121489190823647 15.294676979317043
11.94790484281559 2.5256080768941187 15.342789782845777
11.895384695988469 2.537277792128333 15.381874744159273
11.838767947160612 2.546765164148341 15.423938012502358
11.789293538651922 2.554717530194787 15.460619519936166
11.736625519584148 2.562172441161347 15.499624224763778
11.694463340888127 2.5662960638038443 15.530767975380012
11.628684626581911 2.57211648878764 15.57872679929805
11.574162898844783 2.57745823279575 15.616286836572677
11.517753496888798 2.5821617948154065 15.654253756396855
11.463636881275288 2.5832757820837964 15.69120197602502
11.416711212434539 2.5845900404905615 15.721968386357293
11.34044739738313 2.5875904567786874 15.76871855994603
11.286313779196416 2.5906598528395373 15.799448078595763
11.228635286993686 2.5920236290886995 15.83157406593297
11.14324113031494 2.5823627603120043 15.882709274451319
11.083859193678023 2.5713638087832438 15.917082881435352
11.028902807172333 2.5599652807266375 15.947872712037718
10.978546762581264 2.551577931828507 15.97277324896162
10.899088201171395 2.5452307858535805 16.00459847671999
10.819968468026318 2.5337597918436847 16.03479486222069
10.76532974009482 2.522155804629395 16.054090764724084
10.701658916005833 2.504279482376254 16.074977634905455
10.640360756592518 2.483483155730327 16.093797587722815
10.58468647166291 2.469697025942849 16.10566848108327
10.507631958088378 2.4658369251304295 16.1137523348658
10.440333837782038 2.4636850558659136 16.117661682426185
10.356807134296066 2.4563683427877967 16.12089084775445
10.273147004084294 2.446939356045042 16.12212984429187
10.13510391573831 2.4280113188984656 16.1202806812269
10.045943300393178 2.4122776767815877 16.117627400290953
9.946855739689456 2.3788553226600966 16.118059687821837
9.883860512848639 2.3666905957386346 16.113652967162157
9.815067641036231 2.3558097259110147 16.107049859217373
9.740601887450499 2.351571669352647 16.09482964770737
9.658658538615398 2.347773599507332 16.080151547036746
9.595797022848439 2.3489445050320237 16.06647269826801
9.517014952379721 2.3536051699146485 16.04666210764545
9.42756763479533 2.3596214694717235 16.022915381313773
9.31373801777341 2.365805829198149 15.989894157825198
9.24330367217857 2.3710346444926094 15.968396404501721
9.148792921429687 2.375776810893961 15.9372115708369
9.090340889565992 2.377802690821821 15.917540784102787
8.971419037632147 2.3688599428856216 15.880446063604953
8.896190623160198 2.358194376507714 15.856333892059617
8.817979097143988 2.357887450171728 15.826090717481755
8.740071180534414 2.3566961718764725 15.794102203165679
8.691948184861833 2.352527509122358 15.774279229195326
8.604483704879616 2.340220346501746 15.738841751571709
8.55043387980929 2.3336148094974414 15.715129425340237
8.445235874327773 2.3061909110932914 15.672423016731603
8.344339537622368 2.25270400904074 15.640744906939826
8.26909130982026 2.2167331416152747 15.61065562337841
8.187442827202254 2.160007957516785 15.585006689457547
8.107118594696953 2.137925739709826 15.539729899431897
8.043182992361682 2.1143467523897916 15.498815802539504
7.966872603895405 2.0785630949926377 15.450351056100981
7.898579001135957 2.062761229163658 15.390863884973879
7.830475274908738 2.0284963837120324 15.333653227550695
7.789603913408529 2.0125293003242684 15.29164975342248
7.747996828256981 1.9961647338165198 15.244089324930247
7.700004429882441 1.975974172022302 15.182138866833096
7.643091486684353 1.9569048934005755 15.093701115244976
7.60424689845391 1.9468503790004617 15.017799992000384
7.570264892929199 1.9198827482709833 14.951709671660236
7.54675456431237 1.8964251662256766 14.903746398643626
7.525408898845695 1.8676287315930997 14.855550284936886
7.506156283780333 1.8375256707847774 14.805721735634545
7.490949430578337 1.813721890501589 14.759288508687579
7.473467748853171 1.7795675781476357 14.698123027279557
7.459015049704707 1.7413724505090427 14.646564014490163
7.445768358310234 1.7040790272950632 14.59242010546259
7.43517833928471 1.6773453220460217 14.537295536961249
7.423445671844153 1.6392637941587376 14.441531532244156
7.417185870409221 1.6194100305736887 14.375821819178956
7.4117770338217674 1.6004019042572137 14.31125135868984
7.4074227350899235 1.5737711128670933 14.250909112528046
7.402145022454299 1.5383892072400505 14.181627602566806
7.397301114921472 1.4951438810896827 14.084938738683388
7.393986920562708 1.4585841209193484 14.003936466286387
7.391216172901719 1.422094047289682 13.934574845299945
7.388993716338864 1.3932540184978786 13.87971046766657
7.386682237072199 1.3522613435138071 13.799351631824106
7.385253756090217 1.324398412307441 13.744180196945727
7.383684971391652 1.2927477140186587 13.681522813918274
7.381899087393669 1.2621553741559817 13.62243405774571
7.379468097049553 1.2284082934774725 13.559983003415578
7.3761496545826395 1.1825371913784801 13.475091506002244
7.3738908057231605 1.1503147191450447 13.417587203644992
7.365892458654308 1.0978605798981276 13.353394950997721
7.360731810867994 1.0641879515675905 13.311399634815785
7.352725400886815 1.0064127705920987 13.21841520273875
7.347212967851284 0.9667725569179231 13.147395595577198
7.339848442662916 0.9135579832971912 13.06146991709154
7.341154665367792 0.9007500513100117 12.934372157774149
7.340648114576167 0.8874694695320908 12.883767781258857
7.339610858222531 0.8684576529642989 12.823891580306636
7.335642173280195 0.8184387272425964 12.723530136520882
7.334311156538266 0.7893491795310323 12.66126172621441
7.334451668598376 0.7578782497860033 12.57706627473804
7.335034093765663 0.7267048442990243 12.511757476776413
7.336230502501449 0.7029579784031066 12.457687934994237
7.3415953434362216 0.6972981680518275 12.399434761791525
7.348065772629516 0.6911215252262544 12.338685792232436
7.351515450250013 0.6642272843107877 12.281385604532304
7.367052046703684 0.6545988832500669 12.17681098261362
7.379129059532438 0.6351918091472593 12.098272743855912
7.4016557817970945 0.622300617875239 11.990947821364884
7.421369215506322 0.6372781230437443 11.930790749913616
7.442498278764064 0.6525647857178729 11.870752258416893
7.4688003073880385 0.6719531072032474 11.80613218966516
7.489687403785261 0.6694485646472295 11.755167001219707
7.510947745780482 0.6674389771228393 11.691960418651895
7.5437911768632775 0.6579206499771288 11.604740040183092
7.576122273837254 0.6556415360611956 11.528192517245706
7.61520341947966 0.6693338813631318 11.442343001236306
7.6493265558774235 0.6819837127081847 11.373978863512573
7.684446652838046 0.7046456989647218 11.308352075721686
7.73300236887226 0.7048630770159443 11.212923292610672
7.78082077904798 0.735601551141924 11.134938560804962
7.823372359454168 0.7557714555321313 11.066987092829596
7.862008485415873 0.770838432899362 11.008075765520726
7.8969013927618334 0.7857334706632031 10.958007062343764
7.952398282264055 0.8114240958456813 10.882643129626079
7.985853682894609 0.8205219851704459 10.838664302104252
8.028887466941974 0.8279037148390858 10.7849794880125
8.076202076245886 0.8335354544710087 10.729358657917594
8.118342442927247 0.8435551792033298 10.684272222002434
8.183402750472089 0.860083947388139 10.618390864882976
8.229468879318869 0.8697656925409563 10.578005048556783
8.297942492938205 0.8767230530825989 10.521026862638504
8.399137189898058 0.8478829635516139 10.44755622685813
8.476327320932338 0.8266320795211639 10.399530386926532
8.521783397111658 0.8144190384678884 10.372593628224497
8.576198827818121 0.8031828255153508 10.341780998263374
8.637129906114549 0.7917375204930206 10.308482087326674
8.690053516070476 0.7860696082720704 10.281048093998095
8.749450599801118 0.7810233795592048 10.25183780160954
8.810289414152184 0.7758705338808705 10.223518766154445
8.88095496734908 0.7712198475463596 10.192970436596362
8.941784975441976 0.7681772522581616 10.167914675543525
8.99955333068025 0.7548715211441088 10.146911280494646
9.068186397569889 0.734863635402891 10.123582114997166
9.144180020838109 0.7184095866499591 10.101466123656095
9.203152151175365 0.7064075263810805 10.085985655471138
9.285736371367388 0.6888492453667148 10.068789136153068
9.365274131841776 0.6713131715020921 10.055721871216956
9.45468485547612 0.6613402821795935 10.046489665119577
9.525128256046965 0.6548751583281707 10.04236575276349
9.581487756783279 0.646530459739779 10.042140029868087
9.666070923388286 0.6292496000327246 10.045853593518938
9.736766462095346 0.6142820564140088 10.054353205151969
9.807315500607954 0.5950377754371603 10.06640178413991
9.882356309390644 0.57346530880465 10.083882629271852
9.949272768043924 0.5642573011717502 10.10349595815865
10.0366443983242 0.5526619103438861 10.13580730501014
10.081233983399366 0.540851484563591 10.15545102791081
10.128291777358637 0.5218255872602393 10.179020386325597
10.186115029708414 0.4984746157171527 10.212294640656449
10.230758497756913 0.47616633110464335 10.239280926318301
10.304800178294776 0.46864385887986426 10.28893361902897
10.380344212418635 0.4512017222429705 10.34426858711171
10.433000629225234 0.4376627015861523 10.387189853603566
10.491406369056623 0.4231172296768948 10.436352058574347
10.536739905278587 0.41105088002838386 10.47612436811318
10.582200328843982 0.39859141864464576 10.517453634838187
10.628760375924546 0.38558610859760467 10.561525007302752
10.673623824299451 0.3648312120693049 10.605276924277359
10.713738834228945 0.3410391613958863 10.645928866991067
10.765665415137974 0.31327416244114836 10.699662588316603
10.818209204563686 0.2922849381943049 10.75467359488464
10.85773633109882 0.2780267619047443 10.797869139655635
10.903468643397183 0.2678747480493602 10.847041037635893
10.944820365852415 0.25800936613429837 10.892937645478629
11.000430108405133 0.24041438613246324 10.95560978811373
11.039812438318368 0.22230804478843336 11.001328081923528
11.09239121904815 0.16048801703877125 11.065465420327694
11.12375598931952 0.12597020572279405 11.104095144077828
11.153496694605437 0.09528554042959847 11.139832717365405
11.196115087326525 0.06931035903274374 11.191149747897416
11.226409172845461 0.05212143604359465 11.227928758531629
11.263334715284007 0.029647298710614223 11.273112566114762
11.328994685735289 -0.01328906134308383 11.354199293039798
11.37657385366515 -0.0544929188112695 11.413628331125818
11.408761677657722 -0.08068441017357308 11.454005571911377
11.438930303730764 -0.10559151316762083 11.491721789327151
11.467470645091389 -0.12869994041276023 11.52804548590088
11.50019211433581 -0.1636106754652049 11.568399093311516
11.527636603118786 -0.19495019627989763 11.603255884552407
11.577130280241075 -0.22982039569248158 11.665475938863896
11.61840528590492 -0.251604460300225 11.716982887702816
11.655306425648003 -0.2636537834569106 11.762861873027688
11.696488681727242 -0.28074090162296983 11.813042768633512
11.749519081500988 -0.3410849594542755 11.87999054024419
11.781176184450779 -0.3665816444295755 11.91891740369822
11.816766673499547 -0.4150197174600265 11.962404886845938
11.850006717066996 -0.4270197545288017 12.003541075346291
11.894000372061093 -0.448095691747068 12.055323249765731
11.929624928786499 -0.4714395080607563 12.097921262850601
11.992733385786252 -0.4683189073884755 12.172714724867529
12.04737544585716 -0.4727861816247847 12.234652593460048
12.075430945363927 -0.44405638043139284 12.268053047329452
12.123219144275371 -0.40143722937742865 12.322857562430247
12.187924908957442 -0.4026667514303881 12.392160401433163
12.261316661255982 -0.3896402152933982 12.473089319190752
12.295684044150445 -0.3747483399495195 12.509985748788573
12.340160140858224 -0.3471400252413872 12.557926011335109
12.388788670061864 -0.3046263381334784 12.608655795932425
12.41982117920951 -0.2787204423868195 12.641247279562801
12.479295185308452 -0.2524733594551529 12.709299783358151
12.525798983188626 -0.21663496162331697 12.759298997881412
12.587903191831867 -0.14520899924744235 12.824525159206182
12.61914079722461 -0.10539898317967555 12.856956911987325
12.650541789452639 -0.06893282040603133 12.89099596918976
12.70539668381457 0.04342362141832723 12.937294006315554
12.7586585909117 0.12824247437389236 12.99022121993534
12.790429888286845 0.18873991187089345 13.018919790187944
12.811765971120185 0.23057305220597613 13.037920922984956
12.833884108268833 0.27225609331730194 13.058470878979541
12.869052155211786 0.3331323079901738 13.09470152702933
12.898641325747274 0.38080592602281627 13.127771194191439
12.92266284462045 0.41638066999938506 13.157949927804584
12.969362526603543 0.4792369287541698 13.223966107125246
13.016686746431631 0.5357727236668568 13.309445270042172
13.05469352761029 0.5886951348416103 13.38489728129331
13.094864450165463 0.6509437095078203 13.478692052649055
13.131449230966744 0.7250577170813619 13.565651735123591
13.147829903205789 0.7646799959894883 13.607215588032425
13.161085537244627 0.8060808636009797 13.63393724285207
13.174260369646014 0.8531747914188061 13.656240912181655
13.189772350112847 0.9122020714632688 13.694586961650973
13.202370304223606 0.9664303047603964 13.737214987502384
13.213976073464025 1.0311872127494537 13.78323188997777
13.220061216099442 1.0807558107779522 13.826529277144836
13.22901040793393 1.2065591584103759 13.905278140331617
13.22943107350537 1.3030156711045757 13.963663447268303
13.223127175835248 1.3895899081899392 14.002485452727612
13.213728749938198 1.4654634743541548 14.043545478041505
13.204013075456889 1.5274340648083546 14.071532857153464
13.18909051206619 1.6065803599689845 14.103620465140644
13.166419926534317 1.690788152294128 14.144525088062746
13.136860889177058 1.7493517825826599 14.207618813223359
13.093561662876521 1.8442270521737827 14.273685009809238
13.053699662675864 1.903627537076237 14.334529701924385
13.020008479671521 1.9503699430151604 14.375448927556878
12.977173997667116 1.998757051827961 14.427354760309594
12.942993946013598 2.0235481610662136 14.476276884827005
12.912698875517872 2.0502616846857977 14.510214697951689
12.862127514952018 2.1101538272273794 14.546420927811269
12.821942932492288 2.1513835073973135 14.577846744585784
12.801370246584163 2.167393643303167 14.598684462585606
12.769952622303048 2.191137476069941 14.628242428262382
12.717396971296814 2.2294918933651067 14.675699497349747
12.664330081417983 2.2648904129089003 14.72311986122411
12.593314163796013 2.3036969560488965 14.790552607421926
12.551190990194396 2.3315205745254444 14.822130888431634
12.502455901004492 2.3633553330170782 14.858493570404523
12.446630134049048 2.3917718994072557 14.90483375912126
12.40105686856505 2.4134533934794833 14.943449910895982
12.342895195368765 2.4311277014452264 14.99894211898291
12.276931988421584 2.4476834236945324 15.063087917429979
12.2345297250587 2.458835311413421 15.102864900825509
12.195840449873618 2.4694117355126552 15.136824740191308
12.12564814805977 2.492634617104838 15.193058208328754
12.060916764547052 2.5032843612645026 15.251508709352617
