456
20.568241826883426 -6.926647508978007 -9.487316388851596
20.494662025794455 -6.985282602392331 -9.472713426792536
20.444122366894376 -7.0110648869409005 -9.459596395096721
20.4143847075973 -7.061619645804562 -9.449942037011871
20.379505486403396 -7.1116034355989814 -9.43130838910151
20.339302372215784 -7.172270297849405 -9.406462013169925
20.319664270899263 -7.224327428586854 -9.38748684909859
20.285092330499584 -7.259998929935216 -9.35943641420039
20.22617463853893 -7.293767549069603 -9.321495752831593
20.185440389900737 -7.302351450738044 -9.29944525464615
20.116509944358445 -7.3043937510907675 -9.2588372035531
20.058915288012212 -7.307822109576291 -9.229605006171091
20.002589570466096 -7.309121021175599 -9.197821278644586
19.916458929283607 -7.311584562816696 -9.156401550123766
19.82648182560174 -7.33463850902622 -9.103260204062018
19.761605333413538 -7.355979319115978 -9.0650706871389
19.715553148745776 -7.369829506778554 -9.039891381460809
19.672789036209014 -7.381488602642399 -9.016507521580385
19.624724621083853 -7.389890244891783 -8.990983379281278
19.5549789459575 -7.408259634533975 -8.949178678382795
19.503676778875114 -7.425063022830358 -8.919545533847907
19.451608532702096 -7.452124991296616 -8.88428061952211
19.362386606113525 -7.468623540570125 -8.827905520664753
19.299208570996345 -7.487577709582865 -8.789924968066007
19.25762556097665 -7.504371437856875 -8.759767292590254
19.194169400635438 -7.529442899841243 -8.713459944501459
19.154482743483975 -7.537836385078849 -8.681915632209929
19.098143585237096 -7.552431820059951 -8.639171479476701
19.026679376509914 -7.578397285729615 -8.583078291144155
18.95340088583834 -7.607859678235375 -8.51811724000694
18.908971699366113 -7.639756734473808 -8.47200491662071
18.859121315779117 -7.662372519259188 -8.416812601041753
18.81934049871862 -7.688299033759126 -8.36136070609532
18.773428942380715 -7.728892492235845 -8.294000320560885
18.742084917188183 -7.7571245688871 -8.248988240905394
18.7047546900731 -7.789240118736206 -8.19949318034901
18.665371815697075 -7.814752637372305 -8.15444351900327
18.616444649768507 -7.841000400959578 -8.0965998311033
18.569705951950343 -7.869148868295666 -8.035612807420895
18.528993407462632 -7.90005523872852 -7.977593415951398
18.498864550000363 -7.927278577694546 -7.919190875991546
18.473258650041213 -7.951580957422669 -7.865469258925189
18.43668052769547 -7.999363009412898 -7.790446139772806
18.386416649294876 -8.030994840675056 -7.719399427075782
18.343402241904364 -8.059760243315266 -7.657504518055151
18.312679225927262 -8.08463406091581 -7.601019568422016
18.282197410067788 -8.113445100415715 -7.546633295237108
18.255862731792803 -8.142384486121454 -7.489325529505721
18.228676325271365 -8.17128114634697 -7.432328599148612
18.185663086385293 -8.200354891668193 -7.3577943260892305
18.141655560760018 -8.229771252211242 -7.283810761712128
18.109922091286744 -8.263283582353239 -7.224062675219944
18.082645613403997 -8.296378209168447 -7.166032940879342
18.055883392597263 -8.343397354992721 -7.103238636672398
18.024845205010493 -8.395360533125949 -7.0386569826880425
18.000975117592496 -8.432255189575127 -6.984118180567513
17.97807876817658 -8.473066297562506 -6.928369569721457
17.965126837957058 -8.530408588788315 -6.866875790273156
17.94486973731222 -8.560049460925718 -6.817847094506364
17.92214227943087 -8.593112587703306 -6.758147948396818
17.909823893422978 -8.63774465537593 -6.710397169289026
17.89946771218058 -8.680511422864683 -6.664016944942232
17.886780427203426 -8.726852971672674 -6.616969691495114
17.87472316838048 -8.774251563115602 -6.568504761326061
17.860573858499993 -8.833925063546271 -6.514698716609184
17.854981589490478 -8.88173210380776 -6.471070373042661
17.84558700277454 -8.937785466626693 -6.419489458065495
17.835651946869913 -8.993587842170186 -6.370268985220827
17.831997157792767 -9.033866846140397 -6.334158270658007
17.825920947168193 -9.089189591742022 -6.285793985370313
17.825296504543928 -9.115249668366932 -6.258643755596197
17.82051559080701 -9.148201574998225 -6.226893003551854
17.816571580939186 -9.185485479475028 -6.1907486052643215
17.810425626486378 -9.225591972149646 -6.1570224754272695
17.811855678245184 -9.275680491425739 -6.123330098982821
17.809352590835317 -9.347313221063324 -6.071256970706469
17.800624687955285 -9.412935989061188 -6.007581780379301
17.79551984956344 -9.483673326906729 -5.952040772242905
17.7957912411108 -9.527505546479132 -5.916569769423523
17.79255041747464 -9.569228943101898 -5.881776012897069
17.780586466317533 -9.637474271180732 -5.818320934160032
17.771279113414753 -9.713788712245979 -5.747245507543517
17.76399775725929 -9.772359915235713 -5.695879781330517
17.75937543798953 -9.831523649005673 -5.642236949263368
17.750478535196187 -9.901412337459323 -5.575902045515296
17.74198026258833 -9.975260480483954 -5.510026877855269
17.733080892765123 -10.031064907378491 -5.454534150494488
17.716247867069143 -10.074679631413115 -5.396410320766465
17.692293103287067 -10.11485394770522 -5.325510650660311
17.672183196500814 -10.162806384884565 -5.261072848366233
17.645749125767935 -10.188333426642203 -5.210590277045385
17.61159556031253 -10.208364469829213 -5.135782236469217
17.61309806228978 -10.201036919487247 -5.084641765035335
17.535334586362804 -10.176820133145332 -5.019311537323082
17.492302956683805 -10.163514141415211 -4.94235572129035
17.457306820550002 -10.158557431587866 -4.858468663019664
17.42423920356843 -10.132659219453219 -4.76342723372246
17.419728297069884 -10.098517238291228 -4.661708350268184
17.43228639642977 -10.066579647167297 -4.593006255304121
17.45841828913965 -10.065060837082521 -4.526514482408177
17.48886317475175 -10.081179478843442 -4.4678847316548715
17.531546711494297 -10.087191812813618 -4.39901545223557
17.579458120108917 -10.091656807060021 -4.342451884620292
17.62124787034026 -10.114030561759803 -4.303226560426611
17.707392128394225 -10.118551856030912 -4.227518075743035
17.741512659476907 -10.109038524507078 -4.190878855098114
17.770228942373738 -10.070051515807327 -4.167985134556632
17.801749485970344 -10.028301601299933 -4.157132117514019
17.832389815499894 -9.942649611394016 -4.140514561574832
17.857820407627983 -9.867731883598243 -4.109866533666428
17.88487728614604 -9.830670558890203 -4.063696828895658
17.90233454796858 -9.835357710327429 -3.9881832173568186
17.91273152023205 -9.860840204989803 -3.8968356908416277
17.91948015175685 -9.876479854569489 -3.8174368354795583
17.918882346299963 -9.861399026793963 -3.742345130405905
17.917894344479638 -9.827090866886536 -3.684326390432349
17.92382009708358 -9.7770729655605 -3.6481374106160884
17.93276393857422 -9.695181700259242 -3.6509761774341136
17.941067972110538 -9.637236539409871 -3.6546789402463107
17.94971568463945 -9.564254848937995 -3.6705430599162625
17.963641078043338 -9.512881312826353 -3.6726348341725004
17.983739616845828 -9.45057219922782 -3.664832731680081
18.004918096337224 -9.398494803538522 -3.643556997761163
18.046460576413832 -9.315883178063071 -3.5835785762406243
18.07620649857248 -9.239691431633178 -3.5296094715980577
18.09237023369211 -9.186065570513295 -3.495688979466986
18.112413144992384 -9.136936638081389 -3.4587863664957212
18.143780305829864 -9.112775356768493 -3.400748113659062
18.166620396488472 -9.140313520780731 -3.328259306905931
18.20307472102284 -9.217233983795426 -3.2448093871161623
18.218703655128675 -9.291260777704004 -3.197798181797073
18.23616364751223 -9.335294710299175 -3.162745639848832
18.259299926354817 -9.381546169810168 -3.121515825208724
18.28189773143836 -9.44526721040689 -3.0746361535033957
18.317190749627127 -9.532267267463313 -3.014019390951967
18.331935998118947 -9.587394328588779 -2.9817304603709003
18.34678925263214 -9.651058886034306 -2.958513111886269
18.35898128105743 -9.7654034112803 -2.9352070654735822
18.37403701718434 -9.833518686722169 -2.9114985861054485
18.38534018435344 -9.915525276631184 -2.900995960865542
18.396180701900626 -9.982640879444581 -2.8870163646969838
18.414239262748136 -10.027428142222359 -2.856758809534943
18.437529052040595 -10.068966074893885 -2.8193868153318533
18.462566049779408 -10.104426542335924 -2.7787504947848713
18.49196484051136 -10.163627973759608 -2.7327516272196304
18.52844501729816 -10.214125681845262 -2.6714408279533908
18.550174475264665 -10.252564039689823 -2.630362662930197
18.58005808310011 -10.330255402642036 -2.5820571398458343
18.587306753858407 -10.369370144262966 -2.5699237320494044
18.598112147366574 -10.431999278668329 -2.5535246485341245
18.612550220880088 -10.483821737217594 -2.5324086636861063
18.632081093560853 -10.532859603365122 -2.509037714452684
18.65260737984033 -10.577944673412686 -2.483470242758579
18.684833995752026 -10.640960904695232 -2.43661624945332
18.72377955024878 -10.706890092408676 -2.379368329869693
18.77287290258438 -10.750576569231988 -2.290447215021988
18.822586857423744 -10.808000606178462 -2.207763100587707
18.848974329477766 -10.830838064319334 -2.1609928557483595
18.876666271988938 -10.85059528340642 -2.116364801460983
18.914826019819973 -10.87688989428708 -2.0446766444446745
18.953841516056986 -10.912571863943732 -1.9751868927142882
18.995369205925986 -10.960542075610384 -1.9163288301727013
19.027090659780363 -10.996528616908158 -1.875784575483845
19.071645147667205 -11.042320793844912 -1.8211023342863335
19.108076096915642 -11.07172895575691 -1.7742068692913913
19.144295508822186 -11.085433121742728 -1.7289754870873084
19.206885398562175 -11.115022984250515 -1.6668236331277475
19.296530296827953 -11.130763234878588 -1.5811527171657085
19.37091230043416 -11.163225202254761 -1.5352746422208687
19.455456619071267 -11.184323572842915 -1.4862951854040665
19.508404125364468 -11.190286239352313 -1.453348682415096
19.565239762159596 -11.192203253686628 -1.4188291376608015
19.628248691981383 -11.188832751226315 -1.3855181687423999
19.689022313633505 -11.184039714447724 -1.3552204683060678
19.760661046515967 -11.181493443733826 -1.3186293772527105
19.826776444511967 -11.189004943710252 -1.292666570943676
19.878108867976266 -11.18844407781545 -1.2744115298159704
19.938955405421044 -11.175608842477626 -1.2451705939959874
19.989559747877326 -11.154626143032567 -1.2201459830173862
20.061938801279734 -11.115971733506145 -1.180897337356332
20.13932706933646 -11.088825991644864 -1.1445584274905576
20.229162753398416 -11.05707996142575 -1.1017889975896544
20.288594624532614 -11.04746475936151 -1.0778473797703914
20.34856015667404 -11.039895519399685 -1.0601255546967776
20.449615414099675 -11.055600353333388 -1.0238977778560026
20.55893764794308 -11.049942628157337 -0.9770790840057311
20.612801437097392 -11.063670279059899 -0.9577080204768142
20.66651643212741 -11.07513341255951 -0.9369039545565361
20.740762742269826 -11.076339025700182 -0.9075227063333688
20.806127154668143 -11.074875406469458 -0.8847511770989485
20.876315394615222 -11.078725193072916 -0.8610896950621507
20.923414749993498 -11.055910659746186 -0.8440638187892011
20.992374409235264 -11.053198774627399 -0.8205018452887023
21.083791236540772 -11.054266083925148 -0.794878787986824
21.18330069265693 -11.063801996886948 -0.7632040215144196
21.255480936320584 -11.069168049416614 -0.7424896170837343
21.303596364520235 -11.07020649524602 -0.7271357283366395
21.366946136859774 -11.071449670482336 -0.7061441190820679
21.43315405970633 -11.059853870909267 -0.683150365112918
21.514776115433932 -11.04520009517136 -0.6532025112684252
21.576662321771057 -11.030584064359832 -0.6316417943918093
21.640810878308926 -11.023562045247091 -0.604474958450611
21.718656260974022 -11.015451183264313 -0.5734783229628677
21.794649023004595 -11.00214050809213 -0.540164085550324
21.844984500856654 -10.989510112827118 -0.516949076301553
21.894345647833035 -10.972380394770335 -0.4905479580082934
21.961427437011807 -10.947998022146555 -0.454131883702515
22.03242242591609 -10.941008732503585 -0.4245324307256544
22.099762649078524 -10.922910690114067 -0.38491043374899814
22.154709730656865 -10.904059099792164 -0.35311325028764706
22.208766268869574 -10.882040955069789 -0.3207793128852101
22.278285048414165 -10.858445199498382 -0.27981337192273426
22.36446254976846 -10.83102805845761 -0.23092240294669075
22.424410198321965 -10.811864950859732 -0.20220398802060568
22.4875287453765 -10.794765229014429 -0.1697426551024579
22.54752808949836 -10.779804819257645 -0.13791351060237123
22.597345700637 -10.76342570175538 -0.11425488259770056
22.664045803947396 -10.747537481553193 -0.08374295908648488
22.724293000023554 -10.736332021994755 -0.058247584036212
22.787015505411638 -10.714418509393473 -0.02803487197052501
22.869669333535416 -10.687528214223716 0.005400931544062182
22.95337276090717 -10.659881360454666 0.03653332705780521
23.0370884722295 -10.638835545854642 0.058032727631752046
23.09896704131295 -10.6247764998959 0.07149710104541729
23.2095247447155 -10.58678735038189 0.09369345830252929
23.26131167987256 -10.576347937529054 0.09959408987467011
23.326589109040626 -10.552692806697678 0.10899200548121524
23.403857460867986 -10.537980187464335 0.10205638952137708
23.472535313392097 -10.491793265014975 0.1259534981982986
23.54540504690575 -10.456673056904704 0.13402166712039243
23.59333720331049 -10.430337321922696 0.14656778901561562
23.645009123061627 -10.38998502047792 0.16482402981552724
23.70444745679107 -10.346862521095675 0.18780826943291995
23.762119592912068 -10.306103569098958 0.20268166421279954
23.81817283389367 -10.268406747464113 0.21326116275341445
23.876907577406936 -10.228372853941128 0.21680976033522814
23.933575762135412 -10.190520617756414 0.2184040693905347
23.989235271544178 -10.153441806277222 0.2191695322151519
24.044223486124054 -10.117758949749637 0.21982583330571348
24.097715654386953 -10.075721811128583 0.22433207697369006
24.155584477929267 -10.032074117253575 0.22815710474206785
24.211783679768168 -9.989086874641188 0.229237168944465
24.26580055829321 -9.94484151156522 0.23084846103538492
24.320548969695448 -9.89983819553833 0.2313529375216552
24.37537276252121 -9.853226100814592 0.2313273740527455
24.43091159907832 -9.804691065112642 0.23290581368758634
24.488273194440556 -9.746777286806473 0.23817532745276093
24.555790879803236 -9.680205260676672 0.24323051206505575
24.621645285696175 -9.61765171178191 0.2434130007439821
24.692538669641905 -9.550245442158975 0.23852917722399614
24.732487576268984 -9.507836146650803 0.23613420747504854
24.781729692601107 -9.45865722272433 0.2315814961874798
24.8277352037083 -9.408474342323654 0.2268119753542619
24.867992192920926 -9.368010406862416 0.20239020851127076
24.911179878188957 -9.315777377298394 0.20457554984831727
24.95798897346451 -9.258701047473508 0.19559869635703198
25.03283398701697 -9.178893052574528 0.16820262183155865
25.097625288114262 -9.102849342359082 0.14584955047014603
25.159940512400034 -9.030602291438113 0.1276211176493396
25.20365887000818 -8.983679306132569 0.10814060269010906
25.263105124485353 -8.91428192051724 0.069671464979991
25.316069532830166 -8.85553380994525 0.04513524402587432
25.359962594535606 -8.808083163150702 0.02034907003097519
25.402289431671324 -8.762743547940065 -0.005971779978753311
25.436689804901714 -8.724270506859344 -0.03565705919088291
25.50033907143995 -8.656269977795734 -0.08940517327017172
25.5549986709742 -8.600106254307214 -0.14297688283011034
25.59014628790285 -8.5655609079746 -0.1710083693422968
25.631283869890513 -8.518551946213044 -0.20374404407816993
25.66743591561167 -8.481353731284413 -0.23739452324186328
25.702835365259556 -8.44469834879418 -0.26907354794735205
25.738979410622665 -8.404989175112998 -0.30370335940715343
25.78658486143986 -8.353946774177107 -0.3537759448206961
25.83710747530286 -8.300329480357165 -0.40039048270928035
25.893642926311013 -8.240466660224737 -0.4580610855726439
25.93919347825961 -8.194171936600696 -0.5069119888039877
25.977281633683095 -8.149133544984835 -0.5495353667085414
26.013911789523455 -8.109716464785457 -0.5878547826276463
26.04366324276513 -8.082184027123233 -0.6186691454846063
26.07377079130763 -8.048217431838626 -0.6561119650448699
26.126858545680406 -7.996582519800976 -0.727187992529303
26.174970008620168 -7.9490987243413525 -0.805031440831498
26.23440082658503 -7.888295076579263 -0.8950229191184578
26.289701766558945 -7.829126857598162 -0.9852487925648594
26.315824652835506 -7.800114813745729 -1.0222878192703613
26.34437105892548 -7.767505546684546 -1.0744928852336804
26.36645919950222 -7.7422671210654315 -1.1239507492098824
26.39250246273441 -7.711216561964996 -1.1949335749516683
26.433968515733397 -7.661108449841496 -1.28861285986346
26.469729633881425 -7.614133556392524 -1.3963972241092035
26.49336888351598 -7.583597047302806 -1.480257025321432
26.515632568726634 -7.548617974933677 -1.568833185547291
26.528247800718404 -7.514369883612289 -1.6494109418937715
26.535948586621135 -7.47938364876202 -1.7453082839880052
26.558498104577726 -7.418656738084087 -1.8262172764127582
26.572126998712466 -7.3785487789731 -1.8838547606713076
26.583736668287077 -7.328392522181492 -1.9659925656127237
26.590689332370605 -7.291431199246002 -2.0410593090203006
26.5967960455481 -7.260133604389885 -2.111794029191924
26.59686057438572 -7.231808047559944 -2.1920734090538945
26.605686857653676 -7.2031737016588355 -2.2774310205265893
26.619377676425696 -7.1828226885841335 -2.3379760776239777
26.624711582734523 -7.16717208803594 -2.388246118591627
26.632026156056266 -7.155637652024581 -2.4550497558544846
26.63533022619067 -7.143061748770274 -2.5160154082783803
26.6430559859676 -7.13070911209368 -2.578085764564337
26.64895022958557 -7.122628881908025 -2.6411014719752215
26.654905303830407 -7.106173686359879 -2.7500673951494568
26.6638910809457 -7.092140753787124 -2.839530586248933
26.669476681671636 -7.0863444141113465 -2.900576270034686
26.673072986471432 -7.077828204900481 -2.977032789454575
26.679478576010485 -7.068128433509541 -3.0449134307659236
26.688321321295078 -7.055551794118493 -3.1249307153406463
26.694475174269424 -7.045096148242411 -3.181254402262222
26.69635142419244 -7.033330954380666 -3.239647794159853
26.696873729443755 -7.028956505841034 -3.3306730688354693
26.70220222678118 -7.012135983209202 -3.4217715617476245
26.70050876038853 -6.999417613902843 -3.5091948547131517
26.701583039967435 -6.985723952103861 -3.626725980374032
26.699073585679574 -6.978313496575449 -3.685542324196036
26.70216443316981 -6.965625318793249 -3.776094718828019
26.707566739053316 -6.956564554816371 -3.839909146872265
26.70930090320927 -6.941346214420053 -3.9118892917256916
26.711287673676786 -6.933434725305652 -3.982527674014653
26.71365800236885 -6.927642898579757 -4.034723948927854
26.718252228201948 -6.9122274371521115 -4.105592832629615
26.719418396819375 -6.90017549161008 -4.173635127447414
26.723779680994788 -6.894316739828099 -4.228558354996496
26.723175399345152 -6.883639476665522 -4.27812113706173
26.732751881105248 -6.855959011161126 -4.382075117690525
26.736547124504003 -6.843466350057108 -4.474356963708072
26.742137587041395 -6.830895672428968 -4.528406812900316
26.743807504508002 -6.810529951602845 -4.606658929379419
26.748798412224353 -6.790137155236135 -4.664298200624113
26.754938027147748 -6.759841445416935 -4.722043280539324
26.76308436453485 -6.717152207305993 -4.806183229060045
26.77940226844542 -6.653586090410965 -4.906650432956743
26.785986009065773 -6.613349426141323 -4.988367669851852
26.79216562642993 -6.581636026703869 -5.033256327256323
26.792959498181624 -6.546488387218414 -5.077378714526223
26.796083876730254 -6.494930399565497 -5.157905711902105
26.79512914872708 -6.452585459671152 -5.24994579287563
26.791125196421852 -6.421362486299625 -5.312131317976462
26.789077776836162 -6.389476707214371 -5.391447578849913
26.78114811656543 -6.369214749861072 -5.455577192055657
26.775268922663532 -6.333502776868659 -5.543226987970027
26.760777121063636 -6.3210153402632585 -5.630405127736138
26.745058140087313 -6.298811584565163 -5.7219214224932085
26.733060658011293 -6.29158933860835 -5.7761636055386365
26.718836520314074 -6.288272773349359 -5.847168571837191
26.70856413538224 -6.277998508256957 -5.91433022982307
26.696078178328154 -6.272008533520799 -5.980268547352058
26.67201336892744 -6.276787343465655 -6.083366885007156
26.651082707663537 -6.271164010275783 -6.1860012060915315
26.63067812957581 -6.273619115729879 -6.277508787000043
26.600530417606695 -6.2755206584613745 -6.388222867664272
26.581719273673766 -6.283113319467262 -6.453440294725887
26.562002664327636 -6.290673517873149 -6.503306351657225
26.537263692643172 -6.296700499855808 -6.57204025787992
26.515177679982987 -6.300357829112025 -6.636279597780204
26.486586720223617 -6.304891100882465 -6.700158609528782
26.458159302354723 -6.308604691214212 -6.7641007673112785
26.422375292156758 -6.309730781989263 -6.834691964385103
26.397732485081356 -6.306880200130852 -6.8818548889278155
26.363982007563806 -6.3034816588237135 -6.933806560304469
26.3283129805537 -6.3010482381645865 -6.983932813467026
26.28830231490269 -6.299513064016507 -7.033758331513467
26.243937400389694 -6.299208141498504 -7.086718453437589
26.173711630250974 -6.284438508740205 -7.177917710718614
26.121616099867826 -6.288814787538808 -7.237515333267863
26.07864467496068 -6.288251376717472 -7.291670613271315
26.03431699184819 -6.286468729275292 -7.341460852415793
25.991933822427168 -6.283956161443779 -7.393351741428093
25.946449146167424 -6.280888846451607 -7.44342710926417
25.89929300252875 -6.275553698058523 -7.494760088784963
25.850996126826114 -6.270656215283697 -7.543438141069487
25.80580293809395 -6.262451295827544 -7.585290087807889
25.754845256869523 -6.2475900516987615 -7.629249334658824
25.7040640180103 -6.2304080228225445 -7.671696827683144
25.653760486823554 -6.21068061793957 -7.709735293675627
25.580633931876672 -6.192469901048778 -7.769875344582507
25.50822396372036 -6.179556538400483 -7.827378152325604
25.42424413519055 -6.176483597993071 -7.897735107039377
25.37031855253397 -6.174690242911598 -7.9431589165454275
25.318045061246913 -6.17287707785635 -7.986160847593535
25.2632360579868 -6.17155538913056 -8.026553421200148
25.209259824295966 -6.170258982988205 -8.069557199877408
25.159729605512393 -6.170525044204197 -8.105775679009472
25.102957080679115 -6.166680294703003 -8.152879107729696
25.050853301699295 -6.1623092115288856 -8.191694696965257
24.997727831559963 -6.15653228126202 -8.234293315499983
24.942330644681793 -6.152478131249229 -8.276390261053919
24.887578017970085 -6.149765146626461 -8.317015777395685
24.82916814683855 -6.1424703251224315 -8.357253559263139
24.773740885829852 -6.12953264222118 -8.391115413367032
24.703180450671795 -6.105247766927313 -8.427572235832262
24.624159581760605 -6.0765028632520455 -8.462814187975843
24.550931526496736 -6.058910138637568 -8.500460532424553
24.457557702506026 -6.023192253841277 -8.538723490342932
24.376931484982958 -6.00052546217589 -8.57733406428722
24.31216698411426 -5.986330447490188 -8.609336323896786
24.253240179868467 -5.974006204958355 -8.637783605027645
24.184951174676392 -5.963061325458076 -8.671866800863704
24.133841458384296 -5.95232503601691 -8.695788005743598
24.044305928642032 -5.949647889714788 -8.74843301632017
23.98663860509328 -5.9564352007927255 -8.788712216401429
23.94024170665006 -5.961507393438048 -8.820714388718455
23.8714218733559 -5.954454879900455 -8.856695249449176
23.806480702833486 -5.94701457616803 -8.888563422581994
23.757110870989994 -5.949987431619171 -8.917399929619696
23.704538310066617 -5.955092828342625 -8.950212551846544
23.641131569605662 -5.959746143793858 -8.990546471818586
23.57591855316712 -5.952991228803867 -9.017997340015386
23.502094512000873 -5.948002798574436 -9.046035678425804
23.436063997842325 -5.94415029183428 -9.07087372997769
23.38192595046036 -5.952428151826947 -9.099330298326963
23.316838579353487 -5.961000093515221 -9.132348061112856
23.254273575463213 -5.972054780858548 -9.15994087949323
23.182686211824432 -5.9842647998689085 -9.18939297680973
23.134437198444424 -5.995849341423373 -9.207034413350708
23.062514780686147 -6.016781803653441 -9.23276986113503
22.99954666152344 -6.047301685984179 -9.267563182763558
22.942862860987272 -6.080175198099724 -9.29605665568074
22.892900901276693 -6.108936268030202 -9.32142309270589
22.845816020999823 -6.14113171926774 -9.345071105266896
22.798656682258628 -6.171363335585138 -9.366613509601088
22.738556416251473 -6.205408845459559 -9.38785802012455
22.68790118646573 -6.2334870987045505 -9.403540706687659
22.6131603160209 -6.272533053121672 -9.423365164314141
22.54828267021471 -6.299458151173507 -9.436963942618434
22.47740478472456 -6.325218276062767 -9.446255350576276
22.410961223335836 -6.3536089984392135 -9.458660043066319
22.361990798468835 -6.372066638332143 -9.467453511543024
22.315010067711274 -6.39107408375698 -9.477529420463249
22.249512466294338 -6.411959533118843 -9.485197403480166
22.190933819093217 -6.450613590920918 -9.502748337707963
22.12078848852659 -6.46260131082548 -9.505718508416953
22.051726733927467 -6.472771390282714 -9.505489855851947
21.99374627594801 -6.494925613869704 -9.514919108610856
21.926976019886606 -6.527191194663592 -9.525656121327172
21.859821461456153 -6.552896897563933 -9.534705567770889
21.783590127617646 -6.577117654447569 -9.540071175741211
21.6954057855245 -6.625852563893535 -9.554605927666515
21.61244400807252 -6.661999409051017 -9.562016626534142
21.549701493448953 -6.684854802360125 -9.56518609850272
21.481379617886684 -6.707317809996727 -9.567378644654116
21.391446507870704 -6.737754898430325 -9.567890569448515
21.299315778714167 -6.757491322359847 -9.56372358741358
21.227941083058685 -6.7684086763305125 -9.559813661126416
21.167140947847717 -6.77517380899824 -9.555021580271166
21.073710604044553 -6.780898704502675 -9.54510201025108
20.967256313807873 -6.787522051817948 -9.533506513300889
20.86064611007749 -6.805357542174718 -9.522827273329248
20.772807252274376 -6.843911911291428 -9.516208193960267
20.706268313089087 -6.861135019778455 -9.50775659053233
20.641428938049902 -6.892065545400838 -9.500893721987872
