326
-16.053585510073372 4.459749025529519 17.076606016094026
-16.137022626298727 4.481240674247049 17.02206696109834
-16.187755867022833 4.493240369149784 16.980790084883367
-16.23644164771138 4.496328391855326 16.94330972617867
-16.279213238516512 4.48972491577539 16.911698712657483
-16.328296884810864 4.4889326672347885 16.865062136469653
-16.376666181585385 4.49132790932071 16.81162915486603
-16.442893509150377 4.4720293310625285 16.759989214383396
-16.509900811688567 4.457251743236009 16.703064886767695
-16.568120701068967 4.429801515184435 16.66938861181537
-16.61820225674769 4.408438279300909 16.638619279058485
-16.708475643137323 4.387492257035345 16.56081357513474
-16.760140071264964 4.379627978023464 16.50818718773722
-16.79947997553846 4.369112125428004 16.470657024207874
-16.844147497812003 4.357027677284405 16.42544155721046
-16.9065406664393 4.33374988929225 16.36556226844207
-16.9878800765204 4.292335106639698 16.290709625124038
-17.036660222031195 4.2635590996079005 16.244112600378415
-17.086511735937137 4.2308990437031575 16.193634334178064
-17.127840796461157 4.2049298832480355 16.144863764039812
-17.160334186916522 4.184561438737049 16.09886708690538
-17.192261980742018 4.162709812828605 16.050723648240663
-17.223874556435696 4.136986939869259 16.005653778826613
-17.269571257241996 4.095337254343572 15.941664093458723
-17.31729866338545 4.0529808019671085 15.864183058824835
-17.34588420415345 4.025616115322767 15.813807775226321
-17.392294944701806 3.9807728489553105 15.72514410391826
-17.43510021466131 3.937786538707294 15.64353979430799
-17.472047740494986 3.894543330392411 15.573580960020374
-17.502926873561332 3.8585340060342137 15.51607685617197
-17.533418349988292 3.824120498810329 15.458652514311453
-17.59082214456553 3.7476803600901967 15.385773848217822
-17.611128505928242 3.7208750077855157 15.33692590205006
-17.635903538423488 3.689720085338008 15.282160698909331
-17.67264393230648 3.6414228463633904 15.201116931375607
-17.707420942516414 3.594741110463861 15.11687477450226
-17.729641110541973 3.562791374333168 15.046003202368595
-17.754736197140037 3.527400630620897 14.976704390297936
-17.771972387620597 3.5018870613942505 14.917114016913859
-17.78952647863964 3.4737007233196255 14.859624593008496
-17.807204075688126 3.444764078596589 14.805204088243713
-17.823989643712128 3.416687887972661 14.75266587776208
-17.841625031309242 3.382385957566581 14.685678646079674
-17.865963783071265 3.3374268522438246 14.598636880857509
-17.875612895672916 3.3105975785222297 14.526021395283601
-17.884513473633223 3.286947020331384 14.458529849379817
-17.894483533679754 3.253855070348682 14.37155717114723
-17.90265577147068 3.222688938833193 14.298707725532708
-17.905670936693134 3.2014808741359344 14.236392898829468
-17.907951893430063 3.1808429750800906 14.179696144171029
-17.90967889130601 3.1526916078882534 14.101240726159842
-17.911727149213934 3.1289249630263996 14.044211867572841
-17.9170462691858 3.085622319835828 13.964337724484055
-17.914627912562427 3.0441171194000898 13.858115622807388
-17.91008028619064 3.0292043954240313 13.803106260096923
-17.903389427344923 2.9778473557549905 13.685596686437421
-17.90174200820099 2.944455717220279 13.622451161766936
-17.901220406114223 2.912864034969745 13.568848329161458
-17.90459274679804 2.8653072355299196 13.506447320094045
-17.903112594056573 2.8138352697817597 13.427143336784502
-17.89747867945636 2.7787591441670783 13.363346488322401
-17.891017660113505 2.745155744678395 13.304405683100589
-17.87725003876574 2.708961862097416 13.224128070854993
-17.847624796141666 2.682671306316257 13.122886213108645
-17.834259471523076 2.658277464194775 13.067524113457798
-17.82531220563999 2.629974178811369 13.020027517217867
-17.814908671716477 2.588747013758942 12.959088715759911
-17.801648411647065 2.549955065208347 12.89772599427504
-17.789967676004558 2.5171819331634744 12.847608475336196
-17.77721253117905 2.4828813972494252 12.795928193556877
-17.75570043114176 2.430949882236056 12.717067571166268
-17.735016570614235 2.3987975241474997 12.661359424433215
-17.71802318651275 2.3684595248142477 12.613004552095509
-17.697323294336286 2.330776165112546 12.558094488191179
-17.68252170239982 2.271673096818878 12.498088456661344
-17.660719298917243 2.2099026491318225 12.43621779718695
-17.637649444081845 2.161984285138077 12.381812937034674
-17.599715820683386 2.093356432435229 12.301447582780726
-17.566464451869376 2.0479097192462197 12.243046578302488
-17.528165569915785 2.000547161715871 12.18142905257082
-17.488798858486117 1.9631730388679276 12.126063599516481
-17.436756194258102 1.909451870034715 12.05733853831534
-17.394757386088322 1.84948866712783 12.0019578007916
-17.36516189543029 1.806742095119173 11.966220638657271
-17.306284523280738 1.7396895365117062 11.901907700539223
-17.263716056648914 1.676873583179838 11.857364734004376
-17.215753563871523 1.6287550552295673 11.810822949619233
-17.167052537643105 1.5808907803947536 11.763683142799277
-17.10395450791257 1.5246508625019735 11.703618871011777
-17.075247473241088 1.4797598207795037 11.677239736740077
-17.046280277077365 1.4375057369015296 11.651656107912299
-17.00726162362046 1.394660994552529 11.61736891849391
-16.965774506715267 1.3684623413526953 11.580813435807054
-16.899163849416503 1.3337918359834708 11.523270463084186
-16.810489130535554 1.3157945161472993 11.443737352405345
-16.770502068724245 1.2917150925264795 11.413669934734077
-16.737288110817556 1.2619650146652412 11.389576057366828
-16.687892409568235 1.2318946384386222 11.35279073728131
-16.641670238639986 1.1904041908497145 11.325357716927353
-16.60315045258005 1.1824288973489472 11.294207734985845
-16.550859881551652 1.174359952605587 11.254011293081705
-16.483511591132324 1.151122392995924 11.20965071597761
-16.401680703146432 1.1670978054355705 11.142369223545451
-16.33947334648067 1.1704080657393872 11.095922949681759
-16.288587253839683 1.1685401741460042 11.060923368792158
-16.245337839818564 1.1627368987450246 11.032310667653588
-16.201191955674616 1.1568510143344735 11.003366385317527
-16.14373203925947 1.150330285796519 10.969203022255238
-16.067403561821592 1.1273086615559602 10.93052561516038
-15.992022817060478 1.1063572527891326 10.894211978082572
-15.9424900694485 1.0749042579676293 10.87960999063021
-15.87608519370304 1.0388150471711073 10.859269982060523
-15.816900921418915 1.0209633761229664 10.83308530110599
-15.767405949565003 1.0062676531599004 10.812077230764167
-15.70088170326895 0.9816210833655077 10.785957829756363
-15.645328309779448 0.9571313366993641 10.766544321247862
-15.580796729750196 0.9305157331186116 10.743340500612835
-15.530019860284888 0.9130697644079449 10.724181556061756
-15.470391884628365 0.8935605934687658 10.701522455155494
-15.410642608275733 0.8730953030496884 10.67972461389584
-15.349067648502224 0.8521418060576009 10.657982553166434
-15.28687072226986 0.8316758328002878 10.637263924693546
-15.22397054450913 0.8116381724567387 10.616279910375681
-15.160508112289675 0.7913619215980783 10.595222360207215
-15.095409673294288 0.7699259724729617 10.575566662235282
-15.032009778148225 0.7497828712169727 10.556736752242202
-14.966507927054913 0.7308918642373607 10.537744931847683
-14.871364834105043 0.7073822778195524 10.509890039650621
-14.78120719708632 0.6959534013424238 10.48294054450168
-14.720314513859117 0.6786882486297079 10.46892906900724
-14.653969737331181 0.6550557660958789 10.456384260093765
-14.583075935851982 0.6313649751506609 10.4438261098494
-14.500790919640892 0.6016819327277807 10.431990871772191
-14.428550176663705 0.5905124413069027 10.418162989192698
-14.370992695145397 0.5821955981360787 10.407776027324722
-14.315904827082583 0.5676922475987698 10.401116460233627
-14.243026865214599 0.552693658609779 10.392956544138062
-14.176829549877652 0.5461627987860125 10.384456514723421
-14.100922671400877 0.5393887967047541 10.37646198431693
-14.029609405603884 0.5237095351085237 10.374826658679103
-13.961089453410631 0.5090081309645387 10.373696846443115
-13.906328037569802 0.5011799097785141 10.37395531507213
-13.794144488026506 0.4930391383466908 10.373795111416188
-13.677719600465737 0.49330652985173074 10.378660838703048
-13.621929176139725 0.4933924125387217 10.38173588223701
-13.538951282846977 0.48125359231598375 10.391888380895569
-13.48624335789842 0.47272675425890465 10.399578998957582
-13.444037142508664 0.466308387187756 10.406330741707857
-13.404636404592244 0.4603164191782889 10.412633221681515
-13.351485567468451 0.4533090454361426 10.421720764595104
-13.284039474267269 0.44615932337836806 10.433531809675731
-13.184579358028875 0.43207335278337866 10.454067064992627
-13.124902659188272 0.4215942303804592 10.468090470770818
-13.059784697598994 0.41393097335858964 10.482857729552448
-12.997028837582262 0.4176188034239312 10.494505394415194
-12.897902870346076 0.41740744830000476 10.516305796241971
-12.843605087261217 0.4094607675003077 10.531638489257732
-12.7970180680055 0.3965438299842272 10.547769521607192
-12.741733269676386 0.38463787771284497 10.566245252165118
-12.65549913698858 0.3858697804980318 10.589066875731337
-12.567242179176283 0.39729752548606156 10.60990592691185
-12.519854157871375 0.4199238916268129 10.615401271226714
-12.44648780122468 0.46227697244840527 10.622026341463442
-12.332865540731316 0.4881049187066393 10.649005701774106
-12.235760848033268 0.5078885263914883 10.67471761059015
-12.146462350141011 0.5306041011718852 10.698894235617129
-12.059647024983338 0.553984460291624 10.723609706805526
-12.009466720976025 0.5606366957153888 10.740863984243791
-11.948001029367665 0.5690598088848089 10.762994754451917
-11.878824027335574 0.5760086208040025 10.790561218219478
-11.806961699369413 0.5836411823427825 10.820736202429215
-11.761327339557862 0.5876329434153915 10.841028551905982
-11.71282220279097 0.588852988824472 10.865166547205083
-11.650012021258052 0.5917693462026736 10.897049367855267
-11.568187446622247 0.6205315767153559 10.929215392843467
-11.506140566828226 0.639814225401276 10.956391693796975
-11.456271130097615 0.6552518458142005 10.97945928479345
-11.412991168575651 0.6702739400384272 11.00062688799231
-11.347534159173078 0.6917178313786996 11.035389092452144
-11.288491580746044 0.7120969490326787 11.069503013970865
-11.243115175545153 0.7269451492260861 11.098011496999929
-11.186931295283836 0.7464092717898321 11.135192769522243
-11.124277078451358 0.7736701632544765 11.180923355571982
-11.075726631594721 0.7769622921722881 11.230199526864352
-11.029029520200263 0.779303805398359 11.281909541722184
-10.991245040573235 0.7832141619911759 11.326084027041068
-10.942116556607264 0.7802433229737391 11.39279907211817
-10.87860435440439 0.7705365508506141 11.492726209308927
-10.825649189634543 0.7714832751020231 11.58042968607231
-10.792914977920194 0.7713557440545158 11.639785230287151
-10.760362225278058 0.7693418032577954 11.70490300144196
-10.710164621330023 0.7618546453243729 11.817251113567883
-10.681096704983032 0.7522241541216343 11.894471664893855
-10.64956483712519 0.7384065604372034 11.984401105412276
-10.621987419226622 0.7302041576172378 12.069274577841277
-10.597618746851484 0.7245372926555447 12.149077955592604
-10.577104438406552 0.7174495595533796 12.220498072307121
-10.559204475364183 0.7121564418250521 12.291537481859091
-10.532758122868826 0.7062171992242423 12.401466382005351
-10.510847544281566 0.7090138175113625 12.498615487453709
-10.496978272639065 0.7117938660811063 12.563612778914246
-10.482922101362039 0.713952232886826 12.63972241949314
-10.468101260001596 0.7270452813224233 12.716794621252157
-10.455730860825827 0.7446862899941895 12.780023942451734
-10.445950493900074 0.7575207471685788 12.83913838337454
-10.437228888760584 0.7724405725321388 12.896067053303158
-10.42783497472001 0.7917641347878648 12.960454590101316
-10.419942409919429 0.8127417927386433 13.021481841446002
-10.411446694972577 0.8472449633325432 13.109128583697743
-10.409919807111178 0.8627704374966656 13.161065924063989
-10.41115108009587 0.8859738496262388 13.232400075246868
-10.419401580281306 0.9015004395412196 13.311188625301053
-10.43440487897635 0.9100562367523535 13.395169477214324
-10.452547654077692 0.9187793081843452 13.472857877644206
-10.478446660897161 0.9285005775755824 13.561021618836683
-10.495251970895275 0.9433936439924355 13.616047483298228
-10.539714106221359 0.9799815150048239 13.733822567072135
-10.567887188707315 0.997092787142593 13.798674634822898
-10.601234578557039 1.0152699632298596 13.86890824796561
-10.63226344797619 1.0398038087337056 13.93434763434511
-10.66470044790782 1.0655946473592592 13.9968822289487
-10.704394491102658 1.0973475261671346 14.06863590274317
-10.717432697391766 1.1106486922967875 14.09264009350916
-10.74567816278278 1.1344301020552907 14.141415153845879
-10.762741969988822 1.14879710661273 14.170881544661745
-10.790216050191361 1.1810859026898928 14.218303156906758
-10.817645409382417 1.2150272417345171 14.264711446689128
-10.837095478311165 1.2617290626259903 14.298966967329836
-10.861178147078894 1.3257662407762367 14.342422142925042
-10.874754931868438 1.3733010913986863 14.367798277098197
-10.89194263881801 1.4321492039022636 14.401592429336892
-10.905060641920427 1.487063902124161 14.42946719813492
-10.93106893812364 1.5458131601936544 14.47290024722341
-10.956315371006516 1.585160144356675 14.511995952320314
-10.99999819678413 1.6211336533802292 14.57670268868189
-11.040943644805658 1.6446298288134125 14.63615004645088
-11.070237528693644 1.6578665318237016 14.67856577697616
-11.110817109200347 1.662136598635702 14.738947839371038
-11.157745451275641 1.677849029900983 14.803469697498816
-11.19849271125751 1.7050850075668487 14.857244640019259
-11.229262663125768 1.7349535117856616 14.89422759305065
-11.263841135191337 1.7715614126998644 14.933623497060053
-11.333746693439096 1.854989968006781 15.007277538774824
-11.389021983049991 1.908928483441329 15.064787022899631
-11.438519745353698 1.9614202938437308 15.112022310794552
-11.47361499213101 1.9969556482957327 15.1453010752473
-11.542037507317549 2.0373475096081517 15.220126106780349
-11.591876880583836 2.0614568841356586 15.276453804818926
-11.643778915530216 2.084701355039914 15.33529982779083
-11.693483979272003 2.070315448778496 15.406863945533354
-11.726461150317782 2.061491632456722 15.455063102404193
-11.773422571808226 2.0685457340102626 15.514659588409861
-11.807232311452864 2.0859104387460103 15.551245027989902
-11.853242311574922 2.1473943309587993 15.580581706998869
-11.886384463538503 2.201245341472897 15.597257877847897
-11.950242338983148 2.299326257285257 15.627831543439433
-12.004990875581727 2.3328366798012743 15.680418500959815
-12.052843683736862 2.374354745588499 15.721154965973385
-12.106275665855438 2.3968951577190163 15.774154165810941
-12.16062440693988 2.411002979285578 15.834905756408464
-12.213146303006402 2.407879724579794 15.89160136575624
-12.253590993411846 2.3865423602030003 15.940940004400876
-12.2749576395945 2.3946167389806616 15.985707428459474
-12.318535378653113 2.3898055813003625 16.031862885069682
-12.387571943437345 2.3958298054488507 16.105548556853
-12.420507460486075 2.4335757587813847 16.127976886471615
-12.45535159218183 2.481340905978567 16.14454925640247
-12.488264100456675 2.541583690167693 16.156545710701412
-12.527991732510795 2.6264100402575625 16.166043918124977
-12.602384744123073 2.707686789582154 16.21674194775175
-12.654008896815359 2.7217993135347722 16.26768630078073
-12.691219527758971 2.7211384778145735 16.30625709243602
-12.755118570284102 2.7106380448035754 16.372807250648243
-12.813177643840374 2.7128459309194666 16.438121348849116
-12.867002809576208 2.753507980520525 16.47912869520854
-12.909225098331653 2.8227694647908663 16.50525282137189
-12.971955552063138 2.8788879271065957 16.544647947683046
-13.051763433985748 2.9559896018271408 16.601184730136005
-13.09085376758709 2.9767476224728764 16.632292805366365
-13.139170249071594 3.011962279920848 16.668850030692333
-13.179531532561903 3.0353930602362675 16.700345433896295
-13.224955243796572 3.052583416767882 16.737771957930384
-13.287679531377446 3.071877917206783 16.789356292466277
-13.34064361668454 3.0852755908570204 16.83233695223818
-13.392684864504202 3.096358853598373 16.874097996522707
-13.438096944557135 3.1057254397980154 16.910893367303814
-13.494310381346644 3.1362269185776013 16.948873994178722
-13.535395296902216 3.155675826415317 16.976591347600074
-13.577893809926346 3.172414778393091 17.00509848501672
-13.64506712196703 3.221129245645887 17.042735280209747
-13.7009776742431 3.2523489791266735 17.07616847677683
-13.77010620985132 3.2922362881972775 17.114441292700885
-13.837360881217796 3.321124304204611 17.15302215276121
-13.877403763774652 3.3443341190660023 17.173212294104182
-13.930225524410364 3.3749622977941325 17.1991425914622
-14.009944611465308 3.417686971387017 17.23777799846662
-14.07124250937267 3.4638429088512774 17.259605610161664
-14.117261019645763 3.500136150965739 17.274354278336823
-14.189281114475888 3.5394522364047427 17.302345280262223
-14.225112743146074 3.575046884574454 17.308722278042545
-14.266893067260552 3.6152542654738067 17.314509235337027
-14.32586010992302 3.6621758779435627 17.3257245275986
-14.368877008519968 3.693573152317632 17.334394977202116
-14.45863110790232 3.7517455817481276 17.352572904964056
-14.53123930993992 3.816174821794948 17.35291131606744
-14.616457535014133 3.8709834802888263 17.362483175431173
-14.664533089796947 3.8952827115185764 17.37044053837437
-14.718523222309054 3.919045917309364 17.38108877998362
-14.806473322886925 3.957328691793956 17.396213597717505
-14.890881659795351 3.9914537804954326 17.408475849815208
-14.960543638716171 4.016020375250061 17.416162375440408
-15.080778540488627 4.0542073662782006 17.424400220434872
-15.153433601554452 4.090212248447818 17.412770280797503
-15.19852629283851 4.157613986482406 17.367419648331783
-15.279254117722049 4.2294684091192085 17.322147231222036
-15.3450830946936 4.277360481523111 17.288541499707208
-15.437870711277851 4.327826805209927 17.258301313897555
-15.53280106470887 4.363415220853251 17.231083259050845
-15.593720663624012 4.378541652655315 17.21751551865198
-15.652976688215954 4.392259091380396 17.203343058451537
-15.715900509441123 4.403329971269073 17.18902127434857
-15.793664997061352 4.4135537140502255 17.171661620970774
-15.847372106569612 4.4209438351862955 17.156719813287346
-15.897248124661404 4.427823050929735 17.142462273736363
-15.947602270393947 4.440793970387806 17.123335910123448
-16.003219625035463 4.451832507309166 17.10042939035806
