340
-6.398562490952275 5.421602573047351 23.226499162197587
-6.431139055097494 5.3837875697859205 23.231319458423098
-6.471964790918535 5.335329782023428 23.238252948449585
-6.513981079795348 5.28650154049638 23.245473552633097
-6.55318669012927 5.237886926824401 23.252004745117798
-6.590598453778718 5.190206726049559 23.25960617933329
-6.620742467739462 5.147630391126229 23.268907932928336
-6.659551536224634 5.092396614784248 23.2764455692958
-6.692168860994612 5.041456581361522 23.283132242303136
-6.723347055372306 4.98721352063838 23.291822483065456
-6.755688257007931 4.9288289984646125 23.297964972198276
-6.795572833515724 4.855761582825083 23.292809129226384
-6.836912461102003 4.781050724586122 23.276477776945477
-6.867399117784399 4.70893128724635 23.27321793019291
-6.893633394553178 4.645132068719476 23.270816835021925
-6.92092729746746 4.570267882704047 23.275424809446303
-6.943672410249726 4.504126480965403 23.281139300956596
-6.9666002116276 4.439917918117092 23.27776304176727
-6.989427994963132 4.375404310313425 23.273297277908604
-7.009336443252589 4.316197981896397 23.269602611478415
-7.035205505991415 4.235688755585932 23.26721919169406
-7.052810173577435 4.181166491604249 23.262593924428195
-7.080847979532736 4.092687300202965 23.254111996013485
-7.0949586718973325 4.039424832351439 23.253705649998523
-7.1114279217585015 3.990176450874631 23.251686049745448
-7.1260820553614215 3.9416877679463935 23.247019616602664
-7.140643731451492 3.893612570285314 23.239303489363046
-7.163031340250007 3.823779748948682 23.221808024701343
-7.1837749152651 3.7518598109520562 23.207096791112104
-7.197577564836109 3.7042899176743473 23.197839479989074
-7.217575555197121 3.6331431359265576 23.18491666744299
-7.243331388614935 3.5410931537607757 23.16336465886451
-7.261754186871588 3.4742836923083074 23.14488893667498
-7.278767739197798 3.4090056475766124 23.12793863275089
-7.308706524358768 3.2901756745526294 23.09683829115931
-7.329073565152613 3.2012978693537244 23.09090061106262
-7.340289547328712 3.1494387709948377 23.083766634797243
-7.359533625149062 3.055933250111594 23.069143683641954
-7.3750838237807095 2.967365145299765 23.057480399353203
-7.382902116589053 2.908096780496548 23.032089788706696
-7.387980328154238 2.8439465818368115 23.00262076735022
-7.385606016147582 2.7644180867202524 22.959091766371458
-7.369020025245593 2.7068415705697726 22.902385271131983
-7.342659243926192 2.6474708760345127 22.85813165846847
-7.319563991728302 2.6072760568781197 22.812799947544992
-7.299993937854503 2.568490047901549 22.774688019771784
-7.268919463618576 2.502462295134235 22.69803818277398
-7.249054417443479 2.461655432615488 22.624265523923686
-7.237193060738416 2.4363967066256658 22.570557277822203
-7.223782780818769 2.4019252123579946 22.517712170548467
-7.212728001593758 2.3737782775289764 22.475952173122007
-7.195050814646521 2.330514426987376 22.416814138521342
-7.182624439338818 2.3038789776130484 22.36338307668807
-7.166313872328408 2.272405956357135 22.300085414990832
-7.149265048313227 2.2419055980420444 22.24369119466429
-7.124454715535957 2.2030429304357737 22.166488099994183
-7.107837183976592 2.179308980559381 22.12343466237339
-7.081279489403603 2.1452155154903867 22.06778576771453
-7.048042929863542 2.108345756782896 22.00180710201093
-7.019698438785434 2.0863655799548306 21.942561998760535
-7.002899146343853 2.0733384425990007 21.907448446079883
-6.970450873403682 2.0535227777627014 21.846982222014105
-6.935044848866912 2.0359728349042987 21.785937842495333
-6.8805290137454485 2.015037551021515 21.70760279892486
-6.848127115571433 2.0057862481111153 21.6664906853142
-6.8099001926480645 1.9969744700142105 21.622045606912895
-6.7728025450159315 1.9917567035747004 21.57754035142785
-6.736948967731157 1.9880324980256718 21.53802684910023
-6.689472374184445 1.9817135041329097 21.494361766799063
-6.645211356009914 1.9769316253055331 21.453266898056537
-6.588053322020463 1.9672239387198012 21.4112959688083
-6.5170937472639405 1.9590066841772789 21.3586147307555
-6.446066754807381 1.9587868374124335 21.29734823598987
-6.394337815207334 1.9572760844758657 21.256239686779725
-6.317466886534852 1.9561393164820835 21.195092341486088
-6.224812967663656 1.9504708627209473 21.12866902840698
-6.168881011437357 1.9480459065694626 21.086686212030056
-6.11235719433346 1.9456996541376528 21.04382951148522
-6.056042083202162 1.9427391487415475 20.999946440152026
-6.0014332187425365 1.9427566382630053 20.95205450348174
-5.943832662599185 1.9452972561208002 20.89552946916723
-5.903049117671232 1.946537820193349 20.855037435869647
-5.839247525006798 1.9419212824019416 20.798908837787735
-5.784087339546362 1.9399762416027242 20.742872877696545
-5.732954602860785 1.955080838984606 20.657801952125855
-5.6852147889795415 1.9572750766194593 20.594435469686015
-5.6323499010497855 1.9552585820787458 20.52552799599965
-5.542181375227656 1.9438716236768716 20.413006479280615
-5.495643813979801 1.9505317916542806 20.324682476320753
-5.466918273462226 1.9546001122178032 20.265572836186355
-5.432806048489639 1.9598891171845763 20.19802855835789
-5.355396965270445 1.9538565051105143 20.077346240546948
-5.304027323810391 1.952849955600695 19.989612754004643
-5.266399670544161 1.9482144260269756 19.92827211152495
-5.226721885295797 1.9434473779848735 19.86576884020402
-5.187507006459914 1.9394346461972907 19.80204984902532
-5.161621856987236 1.9379253729891417 19.75791466871516
-5.125124167747074 1.9364177210766558 19.695036909997302
-5.06758556704527 1.9268632756559656 19.610711934168553
-5.040626212284544 1.9229190360443464 19.57004394717728
-5.015834905177619 1.9192921221592032 19.532646515804565
-4.961238233284777 1.9218636535560458 19.434430539495427
-4.904435097865514 1.9091666280891735 19.363290494388938
-4.867820847896209 1.899183906584331 19.32717327725092
-4.788679627256909 1.876627698875951 19.23931886036899
-4.719075110720688 1.8624347366760796 19.160657284030023
-4.670077693952881 1.850673472640449 19.114002489672107
-4.617413062149464 1.8369176148307993 19.067403494448445
-4.527788531483694 1.8095199935193707 19.005649758109534
-4.459698524749246 1.796169603881574 18.953010289994307
-4.388524549586629 1.7822251161387124 18.90656340738131
-4.307404689888692 1.7527406056621828 18.88737762338184
-4.245655276686919 1.745346319149272 18.84755261873626
-4.2178749066489 1.742237703493756 18.829698919078954
-4.126777800839151 1.72349207660071 18.79361136175048
-4.063115193455705 1.7151971906344796 18.76275989942455
-3.9988534697936284 1.7099472647506024 18.729739719740454
-3.934120805882337 1.704201212378151 18.699620345507945
-3.8694654232216754 1.6991872160699364 18.67117607206547
-3.8123329623861597 1.695041790880036 18.64726963931126
-3.7350286291477692 1.6875729745205978 18.623282794451317
-3.6734596684697145 1.6840559318265873 18.59810257011101
-3.6177488592652534 1.6939707699001847 18.562466951031844
-3.5638710032618444 1.6995926654941762 18.535642645713132
-3.491598242648937 1.7027981848069276 18.506436289001726
-3.4138987365230546 1.704520246187399 18.48179536245256
-3.3458452997173773 1.7164522374802234 18.449526665394412
-3.2905422156173874 1.7439429057788027 18.411387018867202
-3.2451199765819987 1.7559274518311794 18.37762760891699
-3.185865260061976 1.7501976138528716 18.37653479317362
-3.123241884779775 1.745090791646521 18.375876523708506
-3.068682911464939 1.736845775496203 18.38224929518625
-2.9996092614120373 1.7364282501791921 18.380408586092877
-2.9495107229223443 1.7336292691117432 18.383960552301527
-2.8731565306248763 1.7231434460006012 18.404630957651907
-2.8182669964666047 1.717586074592159 18.419091243726907
-2.7278680928751644 1.7158381650212844 18.4405750646272
-2.6273705477707363 1.7005630792763897 18.49596758273378
-2.559000026640832 1.6737923125975298 18.568106446273532
-2.507715011559167 1.6520560164236295 18.630130766730606
-2.4328263519530733 1.6484192686377064 18.68238459183255
-2.370610644016966 1.6402461120100371 18.73898147404093
-2.3210361264755206 1.603150025073382 18.844078950875556
-2.2774031816186 1.5835161221812877 18.91719576918039
-2.248417970096351 1.5488823434154702 19.009642885335296
-2.231132625809371 1.5311001419679302 19.06077618726373
-2.2133025434460647 1.514329930462746 19.111843629720788
-2.194651198255698 1.4988141250932738 19.16217260628251
-2.175014995600312 1.4859256585910776 19.210373399896387
-2.1536067147075397 1.4746382586444513 19.25594068826498
-2.1245459615614948 1.4651798632687862 19.308213373864074
-2.0493325757871546 1.4579452015521879 19.41183178416674
-2.0083496312557205 1.4545085521395533 19.469131382335807
-1.9696902505571559 1.4518218731732633 19.523420472222334
-1.915392483393019 1.4576566395124813 19.579390703044385
-1.8732127660080617 1.46191681040436 19.624617627747313
-1.8236572601549437 1.4706722397073042 19.669487178440782
-1.7683284656076281 1.483906738765886 19.71235976673637
-1.700956115939162 1.4967591535932856 19.773406237732402
-1.650353169793432 1.5088960899480002 19.815025221845
-1.6174429336989922 1.5035944485099924 19.877158982072636
-1.5749027262164177 1.496822610480403 19.95791834031236
-1.5488955570786185 1.484567198117687 20.025363744988645
-1.5296215490359357 1.461925012788197 20.11035129953774
-1.5048468420641625 1.445557375444885 20.188952602798057
-1.4906454508901625 1.421692862573658 20.264112028031256
-1.4637359832896957 1.3990377591419119 20.358536508196405
-1.4438392132054398 1.379824691173492 20.4338535137966
-1.4275959035522556 1.3696561043242097 20.483454027243557
-1.4102842609513244 1.360998700878545 20.531862669618633
-1.392276346510608 1.3528835347347732 20.580425347398275
-1.3653992262189019 1.337182076927271 20.66193425613348
-1.3499934808852867 1.3161094021559014 20.73880061593504
-1.3356728244398415 1.2993055701107732 20.794555796333327
-1.3137833358396733 1.2782197934456931 20.87906387334754
-1.2833840877602993 1.2603858012687619 20.97449840103126
-1.2644902527951074 1.239376273226859 21.052073289528124
-1.2288725538240706 1.231720036609496 21.138340689483012
-1.1935366869601256 1.2379396469279254 21.20095491473827
-1.1626317361285958 1.237392664063706 21.269534148925068
-1.1414260949847 1.2294644437718167 21.33250491514952
-1.116944211015963 1.2325570783326611 21.383415985917402
-1.0633435893790693 1.2457480071032743 21.489342100897076
-1.0236517515191925 1.2596925363614186 21.567370849906354
-0.9880700666319482 1.2772704641121626 21.632991096211892
-0.9611283630740735 1.2976678028178315 21.67284389886027
-0.9244060737467641 1.317106230144967 21.75275929636223
-0.8948311319282856 1.33982719260736 21.811918339015765
-0.8588071297688271 1.3753679204720006 21.880667506867965
-0.8296366469186471 1.4090326936849884 21.939520988869916
-0.806915647984389 1.43682415368911 21.994520590432916
-0.7808839902004792 1.473365225934545 22.06124926485929
-0.7613600344663112 1.5079530882560475 22.10792761125602
-0.7420397072622132 1.546671310019117 22.156791689780846
-0.7261612575694564 1.5873562921981614 22.209818583602992
-0.7022146150840909 1.653638292173885 22.260238772785208
-0.6897208790679594 1.686352382981772 22.303432263330702
-0.6797576711782265 1.726859363845061 22.35284898733666
-0.6621028362824384 1.8027175802411781 22.408755227883468
-0.6553564603060835 1.838590765193726 22.432716647056758
-0.6471477377523049 1.885941155592623 22.464589946454723
-0.6351820265886499 1.9760896599437574 22.532669816417602
-0.6315791736907277 2.0165630295902703 22.56851488537168
-0.6280921850379664 2.0610638868966555 22.61203068813632
-0.6270894240433957 2.1066195247426327 22.685377435097294
-0.6264947151447589 2.143541477800439 22.736968077123144
-0.6227535513895568 2.179408255911704 22.794678105518297
-0.621691808166674 2.266252942361917 22.861953490054105
-0.61751651829221 2.3158403008291515 22.88189759766122
-0.6151069427577776 2.369591763062041 22.91226725020968
-0.6147769070901978 2.420846799605468 22.941597367736097
-0.6149656056796322 2.4463723729789226 22.95809113692972
-0.6164942576064936 2.4992937934966326 22.99638401328384
-0.6193182799669874 2.55370074126544 23.034457951031374
-0.6269855504022617 2.6330838080249794 23.088107647305613
-0.6378923596394959 2.7250709873371903 23.142153185696657
-0.6451039358669364 2.774581570244316 23.172388900964446
-0.653046588815454 2.8272546206231572 23.202474142470283
-0.6616171269458211 2.900546111242659 23.229147708999605
-0.6665591956814401 2.964963321567917 23.2426590350499
-0.6713598308235478 3.036153819798776 23.255964780505433
-0.6782144064213484 3.0933823962214815 23.27727205996952
-0.6895866842840961 3.154609818638799 23.310759714987885
-0.6961425911594379 3.2004723394031283 23.32967632232197
-0.7015475719853186 3.280911357632305 23.34701883034233
-0.7111691141756669 3.3495215511654797 23.373399005938456
-0.716476476536506 3.4068925866142488 23.38843400621427
-0.7098825700228526 3.4810886043846336 23.38156294728435
-0.6993514261058864 3.544225002996228 23.367423130573595
-0.6877053014736514 3.594325302796011 23.351289057408913
-0.6741577200396092 3.6462962692157967 23.33293991595478
-0.6438638854860166 3.736688697320152 23.289528658324922
-0.6237188218856646 3.7822444831766164 23.25919578227711
-0.6037963419331467 3.828667461231727 23.22948141946671
-0.5793135987417346 3.887025962390452 23.194745407159704
-0.5555839276363754 3.946054756070409 23.16146363627422
-0.5326722266989818 4.013825827731638 23.134059427873172
-0.5119666920141273 4.106835261657122 23.119133418891654
-0.5041995939445465 4.181144596232456 23.122893002290212
-0.49532436542227076 4.259187955442138 23.125290938742125
-0.49027686507695356 4.355143075644675 23.13527321224223
-0.4886561740825244 4.422068786097436 23.143095938220284
-0.48867328658205933 4.506134414072519 23.151555861871667
-0.49428220483383134 4.5854151879669045 23.163711524166015
-0.4996554536399358 4.621255154805575 23.17231167307277
-0.5108077689204611 4.685733792968615 23.185033281520607
-0.5438681359209272 4.833962468282263 23.204887098576435
-0.5601139111259885 4.884001916806395 23.211000516405562
-0.5774361966532395 4.930783931233964 23.215650073121893
-0.5950332855097953 4.977939080434568 23.216043698344446
-0.6177136863003618 5.035260130391062 23.21425169330315
-0.6512320665876734 5.099096229525251 23.214226772095007
-0.7020990705984629 5.19085663635063 23.209978880910903
-0.7672052786831127 5.309273538682912 23.194292794854558
-0.8096863677482753 5.38946010209965 23.175707500862217
-0.8359971745019495 5.448114550095354 23.153953906645132
-0.8661957388365062 5.517923288815065 23.12331908792587
-0.9162527988950137 5.613534225941367 23.086033811131564
-0.9448251226984145 5.6563204383237595 23.071374763327317
-0.9866874863189152 5.714650033341964 23.053307343435357
-1.036548870921403 5.778251407234685 23.03554776837864
-1.072426128643525 5.819134442583208 23.02574656584923
-1.1103404318668395 5.85961404090192 23.016223003159865
-1.159301947222291 5.908619303153075 23.0064905049241
-1.2150391108881662 5.959635849868733 22.998303055690307
-1.2628116795599555 6.0008826497704915 22.99156925814067
-1.3159338975353718 6.046262090182238 22.983141959989876
-1.3701591021604669 6.090511542038173 22.97372794072274
-1.415371320486325 6.126796803594995 22.964704964510556
-1.4815916587519389 6.177404206387645 22.951247027278516
-1.5384624874770403 6.217996784578408 22.941076774900942
-1.5949923749300285 6.2535135543719536 22.933856865860392
-1.6546148723045286 6.28561926296821 22.93236086926733
-1.7332468719805987 6.322530330629985 22.933313037889025
-1.7912951406324085 6.346551234887019 22.93569678507283
-1.8596357966930457 6.373457355459718 22.936811751600494
-1.9284973658176519 6.400555198694822 22.935363160511375
-1.9833500263558745 6.4171706990478325 22.939042281375215
-2.06802506653011 6.425524565516469 22.965320850154136
-2.1229761394263598 6.425523979509086 22.987643611745494
-2.1895067042529837 6.42548515128848 23.01348973681329
-2.2566045362406477 6.426004833834374 23.037590579371432
-2.3249586724213853 6.425568281333898 23.061988425801673
-2.394474917632018 6.420213708039461 23.09199158969122
-2.4411212686013757 6.416658843303078 23.111219149148216
-2.4878601364049455 6.413658717549601 23.129226640976977
-2.567169307324834 6.414267973311616 23.150874372614435
-2.627175831233985 6.422933575508973 23.155444425872364
-2.6957101893340765 6.438529115174515 23.152143936096053
-2.767132363490111 6.4552489134229765 23.146572947102438
-2.836742924898909 6.471760493953538 23.140907523490892
-2.9141401100108837 6.495563598738296 23.125903019045573
-3.014273880202642 6.527790168787106 23.103557567103646
-3.103303674717293 6.5479603294821755 23.092243966287988
-3.1814313341239444 6.561375766520183 23.08750436629969
-3.2711516646008967 6.568318217252165 23.090593930998583
-3.3343456536070692 6.579347940334741 23.085167431236965
-3.3990132971398586 6.587897328199186 23.08003790735716
-3.4576722844720003 6.598152961793956 23.073216746149804
-3.537756992754311 6.611225815914756 23.063100138500033
-3.6080133354832054 6.613758802510179 23.064499979786362
-3.6751724226945433 6.6099870794838305 23.072388431846097
-3.7573308135738364 6.597932420263532 23.087748772951787
-3.8312399638185326 6.59254188200907 23.094510891183685
-3.889663828085231 6.588194116605517 23.099564880705913
-3.990003363775646 6.5782845791144995 23.10601078176062
-4.061265111896522 6.56845206704278 23.110380106001678
-4.145315918529191 6.558194048744016 23.112508187784222
-4.2045413567301715 6.545791383871154 23.114850786260092
-4.271477258142109 6.532221215325957 23.11860758760196
-4.3458540384380155 6.518224996142277 23.119563136427274
-4.416477831296989 6.502562041045137 23.120693689675484
-4.486467736656969 6.482961961627427 23.12481642664869
-4.555610584073654 6.4631747077626 23.127299968855475
-4.6259135947329355 6.449188533757828 23.12249108447956
-4.711449164854225 6.429780895552775 23.11810579259403
-4.823307589525937 6.402032419756556 23.111400769014995
-4.884145668347007 6.382969229957637 23.111562477067267
-4.944264577055788 6.365068043691813 23.110337127401937
-5.012529655625053 6.344025332845773 23.107830851658004
-5.081668886585756 6.318867875425423 23.108869281767994
-5.151784897318644 6.285643177631562 23.11412209581248
-5.2257105236643655 6.242476801550793 23.127446570483617
-5.297548737273636 6.203200375255661 23.136565079836885
-5.356939081855412 6.17056272560979 23.14359070588729
-5.41601819515694 6.139075453351462 23.14969559429454
-5.467692287299113 6.10993148829825 23.155958424621478
-5.520714380633956 6.079818770457346 23.16214396668341
-5.591985763080389 6.045604370390094 23.166129118125035
-5.667575505363231 5.998976269615102 23.177282685559184
-5.755456134982127 5.951219983258421 23.184950602068326
-5.842243312906499 5.9022063611131435 23.189228111640627
-5.90622018554564 5.8568034051627 23.198776846593034
-5.965052261915934 5.813543869570069 23.205176004286198
-6.0185156406556635 5.77350131585145 23.210758652206408
-6.058927279450022 5.741472428297352 23.21420536902003
-6.137201808476496 5.679920843183896 23.216370645018646
-6.190998300338129 5.6269833808696985 23.223788039412565
-6.25141540278004 5.565666646521804 23.230697173879214
-6.322652610769857 5.505709011249489 23.218022375310884
