295
-13.080520630109032 -13.703257909185982 11.191213145153082
-13.132717239971592 -13.711851908396113 11.146265647330821
-13.186136608382002 -13.717113534110183 11.102120948865112
-13.249130379222187 -13.719389602891955 11.054083774721871
-13.299044995609087 -13.72223695275385 11.021979285291714
-13.359276182664559 -13.723969691847 10.986371370454027
-13.418410779217522 -13.723390027363209 10.952969842220345
-13.481534573290885 -13.72266058036507 10.923547184386335
-13.562831816062042 -13.721930190784175 10.890867004237238
-13.637140319972612 -13.719322910756915 10.863093608402947
-13.728974158030132 -13.716365533740682 10.836188898297943
-13.796947443199725 -13.718942592967139 10.824976338433778
-13.866951798593044 -13.725269217584348 10.819696609888279
-13.93666180420195 -13.730187032759911 10.815518971346147
-14.009751427045503 -13.73503246727483 10.813142357577663
-14.07574876231823 -13.73560740116925 10.808757273598074
-14.143189875911006 -13.731545801190382 10.800891069920102
-14.212529446518712 -13.725179041730986 10.792900762799043
-14.290588789618667 -13.717333857402686 10.78556261894668
-14.350859980755082 -13.711634343301313 10.78105933251615
-14.41958901848802 -13.705651383186012 10.77770807894162
-14.533379004801096 -13.693556784884983 10.772592567026823
-14.595685511542854 -13.68764714378948 10.771592032320648
-14.662558918343391 -13.680557504051798 10.771092550280288
-14.702810756510628 -13.6753508856469 10.771797764454528
-14.734786683346334 -13.67141431935054 10.7721983891434
-14.787546739058124 -13.667370925274334 10.775338574571359
-14.83792779390903 -13.662273616799059 10.778867577349681
-14.914015005584805 -13.651177205521115 10.782599565457236
-14.997244948108708 -13.636489053003778 10.786978701072945
-15.063454094556375 -13.624643049234674 10.79219537554474
-15.129044047214046 -13.6126840864052 10.798164270392519
-15.195756601769869 -13.602165696157773 10.80663689424509
-15.260434784205438 -13.58698900117438 10.813177969114697
-15.333488857795391 -13.571317193546385 10.822937155848265
-15.392501130300063 -13.56116243045933 10.833803214798643
-15.476495092687061 -13.547726492848696 10.852630639954176
-15.532991615708093 -13.537770750924977 10.865296742976366
-15.631887725541374 -13.523867451421445 10.894059838724692
-15.679236089978469 -13.518219490363766 10.909328585988138
-15.744794350353425 -13.510190665761826 10.931647930453543
-15.810588342359681 -13.501482525922544 10.955413777648014
-15.87849283447306 -13.491954742730073 10.98091920780564
-15.943724755264716 -13.480921733797175 11.005892809465935
-15.999402877976202 -13.471489470914825 11.029012245889342
-16.083982056185224 -13.458056974824501 11.06738336380995
-16.180248819360195 -13.43036826997372 11.108111143270612
-16.2353926243063 -13.418192488798994 11.136430372367403
-16.30317302113162 -13.40329741945527 11.174050967554226
-16.352452937840553 -13.39376529469245 11.204304622458087
-16.408773794649257 -13.38176698955646 11.241038821968285
-16.488948543272805 -13.359495934753824 11.296019400742392
-16.55650198780437 -13.334396420856038 11.345382138866551
-16.613502303820432 -13.327176873055876 11.398895949675317
-16.67539087916122 -13.332339673327951 11.471169318352322
-16.72553743274321 -13.326558153987559 11.52681765619589
-16.773285476240808 -13.327264216779692 11.587138597696516
-16.817223744690715 -13.329490913555759 11.646442969474817
-16.861556072723005 -13.326907754811575 11.705350263519016
-16.912260177765297 -13.317860475644736 11.771341132335138
-16.950518956026684 -13.31120084693524 11.82304234591125
-16.979301877566236 -13.307420306484417 11.864099236892597
-17.00803004695588 -13.3031548095992 11.905322293754802
-17.036785119663623 -13.29705960180435 11.946204991043984
-17.06570798076244 -13.289772275203465 11.986844756602084
-17.095213839224193 -13.27907809744632 12.026370106849686
-17.13974341352303 -13.26424418154662 12.089067718096782
-17.177878924830722 -13.261456185288438 12.151657565064856
-17.217454797404194 -13.25555820405549 12.216249090359728
-17.25804353762328 -13.246478871378802 12.279683214025338
-17.29825304278421 -13.232277625975868 12.339644838912877
-17.341343413071623 -13.21133771336709 12.397879956501194
-17.382772502830463 -13.192826209647158 12.455902582454172
-17.42180246806279 -13.177247913304438 12.513022122828348
-17.48730459800564 -13.147820474317932 12.604302155516873
-17.531388478044537 -13.127745870946264 12.665467974345908
-17.575225460122418 -13.115660235343501 12.735642605809312
-17.603453541115062 -13.109197009066541 12.781860479200606
-17.63010767327591 -13.126604376324181 12.858219938752129
-17.657002812172685 -13.132127667411542 12.919425562620894
-17.676698889039958 -13.137189773569649 12.965619270336374
-17.70801990205841 -13.144144604582223 13.037888346366744
-17.750043037279355 -13.156988405425622 13.138109562839672
-17.774860101797735 -13.162208775085162 13.192179749963897
-17.802495571183663 -13.164740433893499 13.247059110986662
-17.83310614782509 -13.178349267533438 13.325010471604486
-17.85842734897398 -13.187002033947383 13.39380559679757
-17.86415387712669 -13.203754128098897 13.442952715972588
-17.86338438812993 -13.22406749935396 13.511264863405103
-17.84703188711569 -13.254628636080927 13.601164893622625
-17.831552981182732 -13.276672274444252 13.645983853624562
-17.79903875142653 -13.333221619114799 13.731772634466598
-17.776159849942715 -13.389131028162314 13.761605915145488
-17.739079922368127 -13.431543032296162 13.818806767205247
-17.70874496352642 -13.465677307357119 13.88855002496462
-17.701840546081222 -13.477600035770273 13.955107367572085
-17.687939984566945 -13.503729809427345 14.006787750028286
-17.69051598297783 -13.503808130207325 14.090482507702763
-17.689662315574523 -13.512130578489785 14.159445321232559
-17.6937697399594 -13.510525513062444 14.226296158962159
-17.715447664436788 -13.495248196438496 14.309874437099852
-17.7474984395946 -13.468038575102387 14.39719349500837
-17.76771540709244 -13.43883274921605 14.444206235572528
-17.790555895700066 -13.403927354228696 14.50005811605177
-17.812431159085108 -13.352950925895765 14.53388157285804
-17.838268882346213 -13.283232934113684 14.567050397480212
-17.855265382331183 -13.234914570473109 14.589760321938982
-17.87339610278751 -13.183763078409868 14.626025063949871
-17.891022351660162 -13.12501069137084 14.667003800232617
-17.905648841109027 -13.066261508202437 14.71335808316729
-17.92675783620746 -12.993636086346175 14.773682801554362
-17.944360120405925 -12.918556932392423 14.843646125631704
-17.960809686497612 -12.861178885665336 14.88070800543337
-17.97799755290133 -12.803897877229065 14.93388110143123
-17.988605915666028 -12.769815011759725 14.982921304982915
-17.998981089911712 -12.719160043463638 15.019798173426835
-18.006643772471456 -12.694885492558988 15.068029140889742
-18.013372753786264 -12.654852203696429 15.126874675345375
-18.0207926956831 -12.61085452262665 15.205566024048212
-18.024238059395703 -12.58315397804596 15.248862468996888
-18.025612517948773 -12.558590691170856 15.305911074332695
-18.02294754517643 -12.551202388862887 15.362519842673333
-18.013173847631393 -12.546532115818046 15.442040804460992
-17.985189077395034 -12.547324241866285 15.564338167910186
-17.96545408784057 -12.537435598363015 15.632884206643926
-17.94673516175174 -12.526510833701185 15.692624766025128
-17.927195570171506 -12.51252463648133 15.753985183354242
-17.909577681230104 -12.50084543636591 15.810377697074667
-17.890433515948736 -12.490132090288874 15.87326727695341
-17.87595847790611 -12.479852244695628 15.923104400067556
-17.85809497022654 -12.46773206293826 15.979084942714923
-17.829850078231182 -12.445105302723597 16.060881320902105
-17.80119899057994 -12.430387033965513 16.12575050075199
-17.758803185963146 -12.419710794414875 16.199354232101555
-17.724290757212614 -12.4140414172291 16.250142283608696
-17.667424027239676 -12.404438162117671 16.32120925997698
-17.628743187893548 -12.403300174635781 16.36155090812114
-17.586571556323584 -12.402256395791316 16.401776945421418
-17.535604799703236 -12.394465652308629 16.447588973408273
-17.493450375442656 -12.382415081394175 16.48520232134468
-17.431790643893187 -12.363913402235571 16.537924846763538
-17.391676729977885 -12.355216814317295 16.570147224933386
-17.33648516305304 -12.346961800790847 16.612721166638913
-17.28888554432529 -12.348844277297513 16.64659925330358
-17.23475143297954 -12.353180945160272 16.683338413670427
-17.19107137418827 -12.356259212439198 16.71317441371626
-17.10727755462884 -12.359340307257462 16.768533014644397
-17.05685863762414 -12.357554385999286 16.801545814809437
-16.997805297912958 -12.354820782427389 16.839195395021008
-16.936064971376382 -12.35602937681827 16.877541400091538
-16.860354194020665 -12.341453862178753 16.924885993277407
-16.79661142428921 -12.328257234110524 16.96389757667051
-16.73250433888768 -12.3180430024365 17.001246636063144
-16.671733824731927 -12.308556567806193 17.03554714958093
-16.609405955313967 -12.297359782282193 17.069611361187235
-16.54756872215914 -12.285655440690292 17.10242527108671
-16.487621431938848 -12.266059035993713 17.133654041549775
-16.429473657290348 -12.246920612961961 17.16264452912302
-16.376589004380335 -12.232053037968978 17.187352959339428
-16.31538236097638 -12.207551696223018 17.21486776903174
-16.257407438792455 -12.185781184492296 17.239221262270725
-16.189635931745933 -12.16536821424479 17.26648392318843
-16.13859681942089 -12.141254346224919 17.286385534528705
-16.061881064424362 -12.103269801437289 17.31655935051515
-15.992850341963342 -12.069131309592283 17.34136568088551
-15.91360335259814 -12.030578782694661 17.368209550406966
-15.852149011845148 -12.003492926902261 17.38805555495079
-15.788558712153929 -11.976418111550085 17.40681393388185
-15.752446607033955 -11.960990445171376 17.41753619300738
-15.70044553814368 -11.9387330933707 17.431595973763173
-15.619393471281986 -11.895225297548045 17.451678218853274
-15.55787296875382 -11.868492887422136 17.464648321364102
-15.509837179760257 -11.847637124650888 17.47397001347276
-15.448203652943166 -11.824294184656702 17.484178471934896
-15.373522476303881 -11.802043408220209 17.494527504487976
-15.315781333848431 -11.780765314312337 17.500148860695965
-15.254936001681388 -11.758332707987726 17.50393266433798
-15.195108054682693 -11.734601563091024 17.505324228364664
-15.136308492664337 -11.71152745564586 17.504552933340896
-15.069490163478108 -11.68824216869066 17.500320916532047
-14.98421457294872 -11.665642647098485 17.48952724407713
-14.914557198318066 -11.641501843526962 17.4757868513801
-14.856826108745434 -11.615997163915019 17.459751578315156
-14.798058308520073 -11.596558273251262 17.441396351935936
-14.737246100727347 -11.578762528334607 17.41996930720086
-14.675723270095785 -11.566960785697036 17.39706721791317
-14.60234975499221 -11.547219992507543 17.364975056168937
-14.553041650230831 -11.542776075603042 17.343903112084718
-14.490757453870636 -11.535957169075333 17.3141889233519
-14.422317426870988 -11.52830741051583 17.279633210605205
-14.333890421852072 -11.525862468870404 17.230878159222932
-14.261953391349383 -11.523789897171124 17.188470090562987
-14.193174086736137 -11.526714036725739 17.146618551314067
-14.133887310587063 -11.535882916107866 17.108155409008077
-14.084482601704549 -11.54596973502915 17.075898477978043
-14.026705353513545 -11.563143885559297 17.036090441666026
-13.95302251408928 -11.582678922102138 16.981435713661742
-13.892233163407603 -11.596420325861002 16.932610920605477
-13.84279038510796 -11.610136119887553 16.89063343312735
-13.79512331172908 -11.621734984282226 16.84686311188559
-13.74937999071433 -11.623042517248372 16.801582852728842
-13.69108972581528 -11.622463343135205 16.736879639369647
-13.628688199262577 -11.625302872317041 16.659455555391887
-13.5781711316378 -11.628380499168944 16.58872496535964
-13.53461915068023 -11.617669694558383 16.522267674008972
-13.503863060825626 -11.596286548741805 16.4713867545993
-13.473444101217273 -11.571563227697375 16.418097098439432
-13.438443088825297 -11.527434267189246 16.35249156167834
-13.415755631268917 -11.500865031584874 16.30804995326834
-13.379754682625071 -11.467388109532353 16.233475701459263
-13.349307951544784 -11.42655302975323 16.170452245041716
-13.32610509926249 -11.395965046396231 16.119147718841596
-13.294710932688172 -11.368877767449245 16.048142845959777
-13.265256798752409 -11.351252481075417 15.981142899331614
-13.237755802206435 -11.34212720039221 15.91747523930619
-13.216983669927838 -11.336463747456964 15.868748556028475
-13.186236173461548 -11.338079866352334 15.79594283720966
-13.14543259751605 -11.324685449164482 15.698910983088512
-13.10411767440193 -11.27574883015312 15.59559554242288
-13.081038745794803 -11.246783044567454 15.537915100835798
-13.052158974867078 -11.213399774079889 15.460079046036611
-13.027387338732224 -11.173881757031936 15.384276952661553
-13.010406931418695 -11.161548264800988 15.330490391385935
-12.985985903009697 -11.135993878650615 15.242876842915587
-12.961832081459862 -11.12171792581724 15.158319854395929
-12.940113455149042 -11.108747496655141 15.076165743408023
-12.924748011684443 -11.072389856270778 15.00548771639585
-12.90333724662727 -11.032593922028095 14.90641136624226
-12.892848073406503 -10.961109052253981 14.8263197564574
-12.884016356010187 -10.93834283824344 14.782496080318893
-12.85069721440283 -10.894264665361224 14.652556257631016
-12.819072505341014 -10.871436097934868 14.55802327906239
-12.787474855352679 -10.842405264606212 14.468246755806414
-12.730203540564252 -10.877650340059883 14.39281726564092
-12.676435982385842 -10.94189528708562 14.363478414634555
-12.624780081419592 -10.998441964685266 14.341914858605268
-12.578854397997159 -11.055722686667897 14.332358866907306
-12.516178348630014 -11.103360073764104 14.296915080011745
-12.460611708930085 -11.157539533311342 14.266181540024855
-12.41832817760382 -11.203345416615816 14.238880453945029
-12.388074256036083 -11.23734786943298 14.212361194276092
-12.327791453723496 -11.304818866738035 14.138457787641771
-12.2947230789748 -11.35624158485075 14.090709360003597
-12.26219101921981 -11.425878374714827 14.034194604495907
-12.229073878437838 -11.48770948098901 13.965141810728575
-12.212222109556597 -11.529098251740432 13.93487922628251
-12.19588755195633 -11.571818898862121 13.906203122421733
-12.172183544542065 -11.61884790415259 13.85682593804739
-12.151915061470765 -11.656176498371504 13.810809094565348
-12.125276570671183 -11.694231297957657 13.74483446988942
-12.087316497846158 -11.773657105172706 13.654334891525847
-12.06401772298067 -11.825811508294983 13.5951774300438
-12.036121235234651 -11.899206855377649 13.515900495139284
-12.020283552031751 -11.946786441339384 13.466238028294988
-12.00609791204228 -11.99297830455359 13.418235796428377
-11.98776346832634 -12.05653312971536 13.344028733471333
-11.972038594694096 -12.117150722451434 13.267483690188195
-11.96184108370331 -12.16189687600275 13.210126997554832
-11.960037666277756 -12.18282412706456 13.187767781809967
-11.955338935783491 -12.247649813279455 13.118112450897453
-11.953239772315879 -12.279352933596638 13.078884312519175
-11.954710449791836 -12.329159106716642 13.02656571180947
-11.96188761470296 -12.38387518784089 12.980564527922304
-11.965830676479415 -12.413930543108386 12.955295231389035
-11.977611746541914 -12.468900235761893 12.895727432201276
-11.989760755329883 -12.514757288552776 12.84029608211331
-12.001437253892565 -12.548640691966 12.795063704852891
-12.015913837789011 -12.587954579104828 12.749553730054101
-12.03026787453213 -12.622995946091528 12.710285271430703
-12.050636080357904 -12.668854655569863 12.665351810427742
-12.070878597816844 -12.712020937101425 12.621361571255122
-12.09191425175033 -12.75245676399133 12.571492257304955
-12.113649087356327 -12.793973826791241 12.522532217789191
-12.135047009461848 -12.832438038603833 12.475692069541433
-12.161147786072943 -12.875880511222714 12.41385149479682
-12.180870844058678 -12.905560191465721 12.353959716771609
-12.20081698710907 -12.932077253383614 12.285938394638997
-12.22433044958361 -12.963581237898595 12.216345928850018
-12.255886765049086 -13.004668568764409 12.133075401326895
-12.277642409729877 -13.03406957125 12.094760001641434
-12.314545029358598 -13.08322252807542 12.036291476484582
-12.353824306137811 -13.132119754458916 11.972399858973134
-12.403845243113151 -13.194526910537654 11.903033749202573
-12.438716005455767 -13.236745432649489 11.862596766969071
-12.473682155994052 -13.277453457872426 11.82244434464232
-12.520998391543454 -13.330200836997538 11.767144367703079
-12.56837006080006 -13.375413257058707 11.699070767262821
-12.619980220237013 -13.422802148564415 11.630874296885212
-12.683553840506487 -13.481382172457831 11.567413529346712
-12.735611134297228 -13.527637321789172 11.521827684911598
-12.769668079449756 -13.554351606198335 11.485474514979444
-12.830739447436637 -13.597894517270916 11.425572387048925
-12.89194207260502 -13.637558173502505 11.375279352181888
-12.947615033603508 -13.667125316190372 11.324991987116698
-13.031033470305518 -13.693530936168646 11.239323875157794
