242
-23.499362578229196 1.9003939805953092 14.73442031408079
-23.52253977997918 1.8810139981756961 14.67924047255535
-23.542157717970916 1.8645871017298328 14.632482022751205
-23.56838491417429 1.8418510021210324 14.567971078221259
-23.599669607817216 1.8140491804389018 14.489286095052805
-23.617949299006458 1.796659318613111 14.435845817977398
-23.652125837832195 1.75908292177101 14.358488536968519
-23.6753809747491 1.7388625077245816 14.262384484241288
-23.693569347990444 1.71736651488711 14.200840124193519
-23.70681546669701 1.7012035027238568 14.142574677867412
-23.718963626322104 1.68495734479494 14.09017273165595
-23.725437710697104 1.6734057558147395 14.033343978410961
-23.735687637929153 1.6536598806992098 13.972425708826062
-23.75599112384854 1.6045866770254014 13.85065714526053
-23.75417021076097 1.584271539881117 13.749242781088196
-23.7499794472183 1.5666915519764792 13.666469162035291
-23.749953962987817 1.5490190807542374 13.613999646672216
-23.753387935881214 1.5198326326104823 13.54888976718637
-23.74885727992723 1.50006383963325 13.48584384746485
-23.742390940122707 1.4816841780826255 13.425035138313245
-23.726712615563624 1.4585707119138105 13.340207308470841
-23.712068468342245 1.4417366686108872 13.27586677757347
-23.695121991246694 1.423419247540112 13.21137279632855
-23.678227522338755 1.404743400129509 13.151194457619923
-23.66287929419455 1.3820841533165193 13.096142594185611
-23.651942965534023 1.34338403978186 13.023638230485027
-23.639087375967456 1.3078707613591147 12.959565352995153
-23.60985334274874 1.2570632918464515 12.86003250320082
-23.60116991512897 1.2089928397687437 12.794059986471847
-23.59274424123643 1.1443980323102267 12.713019329763043
-23.568325058397143 1.1026932089850408 12.641669454976682
-23.537304216137596 1.0757461744502228 12.580971871423934
-23.502961735236916 1.0519080915600574 12.52249238628577
-23.485067367703653 1.0060970452064604 12.461214573088231
-23.454484026064463 0.9826817363075007 12.407582686469599
-23.421381692030348 0.9525965425179916 12.348224136655585
-23.394840283430838 0.9261162831786454 12.299411661793023
-23.34605133286021 0.8915817768653795 12.22503098114505
-23.308788576945645 0.8460329457380142 12.152631106545357
-23.252017890941463 0.8142465246056214 12.07894173850947
-23.220294036279597 0.7898917814036621 12.033078029792083
-23.18222052291358 0.7608955567818088 11.978523472952073
-23.140336915600805 0.7274957301750553 11.915484128781927
-23.098245517838162 0.7112145713558613 11.867132451513015
-23.06529566798517 0.6976633868610089 11.827575166662626
-23.027347345857446 0.6709280001956315 11.775774681145293
-22.95236783436163 0.6613631606805979 11.706820769079311
-22.89310689531568 0.6656169678045805 11.661909767628845
-22.800546143788413 0.6773360221347313 11.597088008367287
-22.73721717515667 0.6769759904534149 11.552975877701563
-22.68755399189604 0.6656815827882481 11.516496407091537
-22.631343880167794 0.6541465942702911 11.480393080432869
-22.526130755978684 0.6461081331553662 11.42495574420623
-22.435325016467104 0.6332473225413153 11.385431260488843
-22.36768702239211 0.6162595105927533 11.358459892380534
-22.27688024302635 0.5693608825616008 11.32646352130746
-22.22323029348721 0.5337202917823314 11.309245330212175
-22.169949735930224 0.5380588529518571 11.2981475743162
-22.100455495316545 0.535626285666094 11.283593961614145
-22.0458213022578 0.5261816383035418 11.272932450824932
-21.974904450229612 0.5064637184482699 11.259502473185755
-21.91635642871037 0.4781242499422995 11.248770352960785
-21.84536705330721 0.452850142711398 11.23734746273897
-21.750916719459266 0.4438815119548494 11.225052100753107
-21.6546114204219 0.43920171837146826 11.213297469171959
-21.532156692774944 0.45212438166543256 11.202378913883045
-21.470621168120005 0.4441673499804528 11.196695273825203
-21.419916489990616 0.43726248857606986 11.192272231190007
-21.36864174438385 0.43534007658656115 11.188357163681717
-21.31727497782436 0.43526758088535855 11.184766461385848
-21.259801090166825 0.43497943164736474 11.18121660861067
-21.190664313985756 0.42736000282003594 11.177245016170016
-21.116282019195495 0.4200903263293281 11.173189577559594
-21.052331902776217 0.42013607885057525 11.17045255439059
-20.969711076151818 0.42687355269302785 11.168215167483705
-20.918647439566424 0.43202655175395677 11.167508771952189
-20.83246910333053 0.4145703586877847 11.165904589363493
-20.766602521090885 0.40778919859978924 11.166149564469308
-20.71458328101581 0.4010189597763043 11.166941261324123
-20.644460597196943 0.3812801645821384 11.168536460744487
-20.575799202479153 0.36229667284843314 11.171396988030395
-20.492900246930937 0.35194664688849464 11.177364321823418
-20.34477175621724 0.38040918399698054 11.198678828100412
-20.274008108183686 0.36306526162915453 11.216756216371657
-20.22656769189103 0.35371723600264815 11.231739375403041
-20.17185298198521 0.345582148166685 11.2581594287231
-20.099193774488274 0.33457277443206745 11.306813530845208
-20.03127656192341 0.3275697316041106 11.372066067231579
-19.95263805024119 0.3486607071368306 11.469802597179989
-19.89174292072091 0.3306783669993676 11.541470681063956
-19.83258684359691 0.3368928405131837 11.602951329237587
-19.75885176588153 0.36952995613564044 11.676697226847448
-19.723260296549068 0.3892754546170525 11.712371241961065
-19.671406282569684 0.39604347992568023 11.766680170516178
-19.617413530713502 0.4200829878609995 11.825117113448208
-19.577285838302558 0.43846104359244986 11.87023081229362
-19.5331749506065 0.425030256614515 11.89519322220476
-19.491100386854107 0.41575123971883077 11.953215619228025
-19.44638222953197 0.4427302942092979 12.00314485072554
-19.38428583019268 0.4653226253279197 12.075430170642644
-19.317897699593384 0.49061337558024576 12.156134949970323
-19.272425312523573 0.4901764472272605 12.201818712345087
-19.23388443393112 0.5122989854675803 12.260173051190066
-19.194301803547578 0.5336098740078952 12.318518927059909
-19.157053138738853 0.5578722251896138 12.381445969428
-19.102198064814466 0.5714376951528708 12.46048789321225
-19.062297114346844 0.5831708045028043 12.527115472889616
-19.019053362194267 0.5935314992412848 12.602229719204
-18.974491135588085 0.582511256282678 12.650791402434795
-18.938129431367354 0.5866255913550296 12.714266073029734
-18.88666572429847 0.5870723077093349 12.798864530082493
-18.867260016960472 0.6052559574543888 12.855026268557111
-18.843186276442502 0.6302268206987938 12.929878810108686
-18.821895350943777 0.642741203273169 12.987377458132787
-18.802613275447317 0.6600352025073306 13.049531688009477
-18.78625297757851 0.6804144867076634 13.112223792166134
-18.766169609423276 0.6944174956370692 13.176610843069462
-18.746282879544392 0.7098909514701011 13.246152275248651
-18.728772360619136 0.7233631321390157 13.310389710328757
-18.709471868278843 0.7311511278414642 13.37396370254158
-18.671757082366625 0.7282378065345765 13.475896898235622
-18.639874924210304 0.721955727419656 13.56142995346088
-18.62195300224502 0.7208979870802756 13.627659570637352
-18.602037920382877 0.7172955659783153 13.698970343912038
-18.58688732388088 0.7153398935047854 13.761472679792657
-18.57579299032218 0.7141763486542834 13.813087231326943
-18.558836990295752 0.7117931652758638 13.893924023938514
-18.532667197675202 0.6843530200322059 13.989083988747812
-18.520777673648013 0.6747363472606422 14.049585884939514
-18.511786797906773 0.6700900819722735 14.109622453187427
-18.499673324227512 0.6606059630108705 14.200243356513312
-18.493945270584597 0.6562708497232501 14.253926502610067
-18.490910569330484 0.6672057623444547 14.328326543702282
-18.48215484963741 0.636437510616076 14.396124338379934
-18.479409188335033 0.6219379369797808 14.460510272158864
-18.47976920963935 0.6206822627647437 14.531778537221708
-18.48181934411189 0.6043572991153683 14.616123074283074
-18.4921115165017 0.6072178717677357 14.69746304327229
-18.497904087827735 0.5865964666911498 14.773511282096408
-18.508554666892174 0.593287801308024 14.846491523095924
-18.523605003797147 0.5675916751527725 14.925143575607425
-18.535223562260466 0.5612308554044487 14.98235905578937
-18.54820433952318 0.5637872801724391 15.047162988797194
-18.561825837202807 0.5679056080976417 15.107362545244392
-18.579883291484425 0.5732204707587347 15.183651949177381
-18.60194309749488 0.5806729775384136 15.268279069483004
-18.626232757316657 0.589278205118807 15.353922115258811
-18.648162132290643 0.6006114735464556 15.427803753503767
-18.67171729033669 0.6187697481508407 15.509359568353105
-18.701308573013367 0.6454219806178565 15.59340256781245
-18.722542428587268 0.6568731540298347 15.651094125066173
-18.745953894937852 0.6679703307146299 15.712277788223286
-18.772922184034208 0.6655281695417323 15.769557921293433
-18.79943498449298 0.6617244751373779 15.82373465711115
-18.833039857296374 0.6561203166043219 15.886645940911865
-18.869762617887062 0.6464665465032304 15.94752445236809
-18.90552814693226 0.6341392123004721 16.001067706023022
-18.961434586891976 0.6116056892063968 16.074387875361204
-19.009686289170737 0.6048383712351946 16.13537561190646
-19.067163056592943 0.6033039701587657 16.202782988003428
-19.087096112185133 0.6058927129246263 16.225557532460897
-19.109713428563687 0.6087465105679613 16.25015046418177
-19.16572658802827 0.6124604861628185 16.30757633544872
-19.214772653334396 0.615097034299851 16.354706461763257
-19.26589457787085 0.6149269869867613 16.399992986915723
-19.310518309276457 0.6135252999336931 16.435825562750907
-19.36482989612843 0.6089459396679571 16.478066720685888
-19.429404504604573 0.6107418180504731 16.52519050277269
-19.489805599078625 0.6140086845829749 16.56738721753332
-19.574749800486543 0.6370771457144575 16.6213636454092
-19.660424203687025 0.6597529460917628 16.67118760633092
-19.721692972847514 0.6718858862786319 16.704159412358855
-19.77454237434457 0.6885251125194007 16.72968677935117
-19.829064976886873 0.7190320312400336 16.755783771895413
-19.894489786926066 0.7328569586482314 16.785512187869877
-19.950352682185006 0.7521456710037868 16.808062880633084
-19.997787804948107 0.7701304513126734 16.826520707547164
-20.041566207969165 0.7967475549364851 16.840845248107396
-20.111607576562044 0.8238157642896153 16.864376628281533
-20.177718654667437 0.8559777608918253 16.883951985652924
-20.223209397379687 0.8915922080460255 16.89421652618719
-20.287979736590604 0.9251672494197845 16.91011971634067
-20.375800147670176 0.9697433040442283 16.929751514656274
-20.42216107830964 1.000981468182025 16.93717138021802
-20.479972592779013 1.0412552232907148 16.944998642909226
-20.55041007469292 1.0884501757347893 16.954304990609522
-20.595299674570875 1.1206069310446254 16.956599865346348
-20.638172317194055 1.1604707000608796 16.955761560742573
-20.680654529920364 1.199045576983155 16.95418519534529
-20.739455038020434 1.2341972935497538 16.957430625791183
-20.789177251947507 1.2731249819643002 16.955393198073892
-20.84673094869757 1.316917113811554 16.951149488863898
-20.914968599036193 1.3593599413201254 16.950139191112243
-20.992145773913816 1.4249878806762304 16.93323933273313
-21.06612385911074 1.4627105979027233 16.92790773667477
-21.11035062651258 1.490099916761901 16.92312646924303
-21.180086154580874 1.5260204352183164 16.916359980792535
-21.238135638249485 1.5596374365781207 16.908177828642245
-21.28440942486353 1.592154592226084 16.89795463546628
-21.35893936903599 1.6508838100075423 16.87687593845689
-21.443637426260914 1.6991316891417352 16.85889524756388
-21.509312882770924 1.7336310983242011 16.844819512617228
-21.551018204370248 1.7697487673475942 16.827034961979503
-21.612078005785587 1.8264169632881417 16.79557654100265
-21.692043308272662 1.8717145437628018 16.770040143975496
-21.76955874236377 1.9225295727592187 16.73509486674719
-21.83227754375225 1.965710331602045 16.702270724487523
-21.89217521129054 1.9958946101250445 16.674338352264822
-21.965460943708973 2.0270945566365626 16.63944118419316
-22.03295251964228 2.0559744797291177 16.601898921596568
-22.096383255903035 2.0788136154603247 16.56389118054042
-22.131848325684363 2.10010540997195 16.53243607266844
-22.173176841019053 2.1240184281537404 16.49542240658012
-22.259282494300713 2.1370645224164377 16.437636536936473
-22.30572497083409 2.14212262153809 16.40376735978964
-22.36746110810272 2.14393808321576 16.360320287427434
-22.424059893880127 2.143512667077701 16.318362461299678
-22.49317258787134 2.1489115253258806 16.255813056637702
-22.56049205775268 2.1519049198991667 16.192014388917624
-22.612051129319838 2.1488646303030094 16.14559011164544
-22.66343353259856 2.1454630873361475 16.096796250040107
-22.71742471541449 2.1400666787643434 16.044813406848284
-22.782890027450566 2.13299856916656 15.97816642675648
-22.837485224075063 2.1254981538170545 15.922463812839418
-22.89666771317859 2.113694377699712 15.86021554192211
-22.952902912218832 2.099086499535826 15.80461844175963
-23.016190807524662 2.0767058281872606 15.749768150031969
-23.05615107605748 2.0710550262275893 15.697758399563646
-23.086183258082723 2.0700441605947724 15.655575064590366
-23.112484235339785 2.078345272702883 15.601398284293975
-23.142533244290725 2.087910571902074 15.535774673534792
-23.17548684081742 2.0848999614266033 15.473838538067223
-23.198610923831275 2.0816172838123004 15.42988604610256
-23.25402513077341 2.052843694447395 15.339091350625093
-23.28259212192928 2.0401121071176016 15.280087963535795
-23.311443404815368 2.0253900484925955 15.218838390503294
-23.341669723698388 2.0088663951388908 15.148147710540822
-23.374825498281826 1.988579370309247 15.066658682375227
-23.401850655920942 1.9710173934022563 14.995110571327345
-23.425778056412202 1.9555573315793833 14.926997986629974
-23.457149691271432 1.9323333806936365 14.843434071026174
-23.475921807377045 1.918706003293333 14.793674853158144
