298
-6.599609027876426 0.19964248592929668 15.244148582856113
-6.6417659395382564 0.24790410470561053 15.238760449707259
-6.686441021602912 0.2973455312077373 15.2336653532294
-6.766045346953209 0.38723055665872863 15.221661360545989
-6.8418410736732245 0.47618201235117663 15.206781513615397
-6.8950376729429514 0.5401216443725341 15.19442176795947
-6.940313919515088 0.6029408833059509 15.178458215656432
-6.972871328908586 0.653632879620182 15.163412134911532
-7.0075588374949405 0.714274542186569 15.143242041308937
-7.0425364288925625 0.7692148451471246 15.125602215082253
-7.085630026929572 0.830650942078555 15.107976012343004
-7.121424950670729 0.8930264546818241 15.086605484648198
-7.1585179821801015 0.9571906836426369 15.062994243434384
-7.183612774169102 0.9987433550470319 15.04806236990773
-7.207672037035131 1.0416790231649156 15.031947334595907
-7.230161637431108 1.0862632521097004 15.014538409503583
-7.253426929119891 1.1301130389145628 14.996580205770297
-7.274795708425789 1.175720426786913 14.977509399043672
-7.3118763720170445 1.249076135857495 14.946519062959268
-7.349381651043425 1.2973162219242753 14.92971035553848
-7.395337430901597 1.36028769607388 14.90581941929687
-7.441951430819024 1.4334783410831538 14.875333380252975
-7.466342603747769 1.4856753443715593 14.850865379541057
-7.5149967990749555 1.5513036265943918 14.822537341680546
-7.557419910650502 1.6017538894493724 14.801127007197481
-7.597711554206112 1.6524064316664244 14.778100174732321
-7.634891638793299 1.7041678565407299 14.752599386851765
-7.672059672869951 1.753626189997231 14.727646437293606
-7.720596340099503 1.8142613611348795 14.695427139992725
-7.752329744199468 1.8727635104915548 14.660596638538129
-7.780058807208311 1.9204386433711091 14.630965884879656
-7.812552924686125 1.959566351398908 14.605286164768785
-7.86301851883576 2.0239997566563597 14.560633309307764
-7.895160805698767 2.0676498652266737 14.527238897675984
-7.973631575426866 2.1379340461762624 14.46742642362846
-8.041686568591045 2.1818704219950487 14.424970880959815
-8.11472392790605 2.2219253803809966 14.379578558353764
-8.188298287996279 2.2605572133608316 14.329644721031519
-8.276304890582837 2.298195426302346 14.270633494117442
-8.34888440997127 2.3501137061911415 14.190386942523359
-8.389077539252312 2.3790355305416586 14.140767973812984
-8.426649218726752 2.4020550153283464 14.098003327699265
-8.466714389228535 2.4244478090912143 14.05242978476694
-8.507087365843377 2.4450006856142448 14.005944659724445
-8.546683623220076 2.4649059068535903 13.958860740677927
-8.599891749705773 2.4920827213938033 13.891068664095018
-8.648823843905333 2.514206911660869 13.829762086299176
-8.684524857491796 2.532477155039011 13.77992160771845
-8.720708618907766 2.5506069494087313 13.728697225057063
-8.779492775661575 2.576764971451299 13.647598616434923
-8.8219880780851 2.6049560604147333 13.572421400822455
-8.85151009981185 2.623459874326956 13.520846491852042
-8.88495622825843 2.6442823906902078 13.459911163016892
-8.92034581303278 2.668280093718213 13.387588258554693
-8.945827099967323 2.68191513509945 13.340789645339727
-8.978877919168278 2.697366909976056 13.281113490066847
-9.011192901942072 2.712480216331816 13.220333884922997
-9.043214628113489 2.7276840647661356 13.156425480067703
-9.070171506971501 2.743033538950665 13.093675606819055
-9.097324337693742 2.7565750698121976 13.029513411108715
-9.127026652488132 2.7686007865659557 12.965187221825682
-9.157307688458246 2.777997835873194 12.901797784405325
-9.185111974874204 2.787613384639272 12.837322139029421
-9.209607744183359 2.796848833283164 12.773735153755403
-9.239491894459224 2.800801936954052 12.709874879287273
-9.27224821376628 2.8013392152091328 12.655757652958288
-9.302763087333304 2.8038933951130387 12.588089540646092
-9.331095811398878 2.803562663118596 12.527447265761676
-9.35730948674272 2.8023210708731803 12.467261667969948
-9.37991606886805 2.800314520612342 12.413194276101926
-9.404140157465054 2.794799002948528 12.35821490539631
-9.42468292504807 2.7901228995410374 12.311593759302665
-9.457729152519006 2.778378308819237 12.232222077491246
-9.503569751498578 2.752566013564258 12.11880584544615
-9.527897273313048 2.7324890412966045 12.042855391320629
-9.54138939831638 2.718301410130204 11.991918577032935
-9.558368304744052 2.6953040428215225 11.920309131764839
-9.57263441735281 2.674399464158043 11.867697454846896
-9.589713908938558 2.6471511060536184 11.807449280316373
-9.606558251283987 2.617481780571241 11.750167633713808
-9.6215844389951 2.58564009973575 11.692551054897269
-9.633751035518682 2.556804391681892 11.64299270857063
-9.652161452230446 2.5122416990126464 11.576829077733967
-9.664831168162998 2.4769448413693222 11.525797691021705
-9.672328344011797 2.4401587363103907 11.469119202490708
-9.678670807938861 2.402356592618638 11.412301153567972
-9.683331952871253 2.3632028726412253 11.355879582946478
-9.687845300153334 2.322920981706557 11.300449212678018
-9.692332768133054 2.280749964195407 11.245606426290264
-9.69482355053196 2.2382837287066195 11.190627453052125
-9.695715782834903 2.1955345970755484 11.134858345447354
-9.694720834627713 2.1536302562474434 11.080423857246876
-9.688162414085827 2.108663598928506 11.017854444310938
-9.68565071175542 2.069644484071076 10.975241759151553
-9.68064618719409 2.014731737527889 10.91495426038467
-9.672155945236305 1.95651877457008 10.853288342434631
-9.662287290733769 1.908582564362927 10.801908329830642
-9.649007343038853 1.8606439567359212 10.749182458488683
-9.633138547953669 1.8127617907652986 10.695636009167433
-9.615136755300037 1.7644863950899747 10.641939566238783
-9.593514350587217 1.7007796916747813 10.57544414817765
-9.569341249002685 1.6217254621891284 10.499444804411672
-9.556269162177653 1.5649440934432537 10.451305172442067
-9.525782204436943 1.4924659751202318 10.377782535168759
-9.507523458874122 1.4427766436178446 10.331665495752208
-9.493834119889227 1.404241123988827 10.297062106116911
-9.480697506280682 1.316026088570109 10.236832885242091
-9.47604314035808 1.2802803966312664 10.212325628003766
-9.466580603707413 1.2154138590651735 10.17003121876115
-9.455238095013023 1.1505053746834069 10.126806770888397
-9.434036614228573 1.0772033336711675 10.072967264777288
-9.422190381889475 1.032200537359134 10.043335591085016
-9.397689504858905 0.9515913568031196 9.993513560032172
-9.353145829135574 0.8659117286381046 9.93894739186354
-9.30136931530645 0.782181796840423 9.895733032849453
-9.282867625628727 0.7546903054446243 9.884294510536776
-9.22483221247963 0.6776154917924138 9.855231591120862
-9.18855400432688 0.6432052411030638 9.840526324175677
-9.149275250897892 0.588612197318696 9.8236020113055
-9.086360093878469 0.5070791169930802 9.79653908148435
-9.05122037264174 0.4724826063576497 9.782406941485096
-9.008781497357194 0.428899345488031 9.765125692358211
-8.960281336092375 0.38248314076332823 9.74855551548632
-8.928672006212265 0.345237338378523 9.73676084545522
-8.87674848380826 0.2819094405655398 9.718548993220828
-8.841293756230973 0.23677460792959737 9.707257823961665
-8.806201866580812 0.1790765452469958 9.697416040394998
-8.767623224442875 0.12213359042005933 9.688103403612052
-8.732488730134731 0.07390231785257306 9.681107314987692
-8.674252929462458 -0.025418878158539826 9.674155088776223
-8.623756830865743 -0.10622661281715962 9.672122248813887
-8.587643767456349 -0.16256184646834626 9.673068841910542
-8.5600016965737 -0.20613369655016678 9.675434131379284
-8.532293094293639 -0.2607845927993808 9.681630078955276
-8.506260297616906 -0.30928255294242657 9.688209659430832
-8.469403581121972 -0.3794637114108115 9.701642160555705
-8.436905595173846 -0.4467329159267037 9.717106414055928
-8.400115891760477 -0.5037547999939784 9.730769197607525
-8.366635364125154 -0.5529331004687221 9.744393384294215
-8.328247366580042 -0.6144535863005305 9.760814948762441
-8.291426156406994 -0.6646209419207754 9.775748722860442
-8.247236105659935 -0.7092542576107652 9.789223168411045
-8.19842311975553 -0.7540152952794368 9.80323194988598
-8.138053033074353 -0.7949056261659253 9.816556621447763
-8.079321450055264 -0.8340693091024867 9.829531533213906
-7.997947121266927 -0.8937690258115012 9.848702822187152
-7.9147630502437885 -0.9530846337937797 9.867059967566847
-7.848596464693008 -0.9905698280662785 9.87742491084554
-7.803981397793411 -1.0134713561103115 9.883121879312117
-7.758354883560564 -1.0418779843753594 9.890229845944152
-7.712787527018804 -1.0774125799491543 9.897069476238254
-7.617020888788769 -1.1294595333364965 9.904771314841913
-7.504379439602962 -1.1764579110846416 9.906809313583356
-7.4513647271750365 -1.1978089035460275 9.905917779487979
-7.402081276939718 -1.2176569229338439 9.905089647164976
-7.325971940063633 -1.2467652884329516 9.90235912548231
-7.245774679455936 -1.268359516513248 9.896596315835865
-7.1534828237168 -1.2974134286540107 9.890472469317947
-7.0839946069019355 -1.3196237519563252 9.885512919235714
-7.007798326179578 -1.3496403065727853 9.881328054400964
-6.94968062962565 -1.3661160726614274 9.876645675992688
-6.882064581310017 -1.3945614052795956 9.873753684124807
-6.81477484138739 -1.422081619241256 9.87115185096773
-6.745215741368737 -1.4502941839115642 9.86830864341768
-6.660489293395301 -1.4812087652005084 9.864668259501562
-6.580275341822929 -1.4986156791273872 9.857492514068458
-6.530460831388452 -1.5073207484040587 9.852466119807588
-6.479912346991857 -1.5147366446549086 9.84665332412153
-6.419550038397469 -1.5236965697737004 9.839973844521086
-6.328237077802475 -1.5475331580305607 9.83454418091333
-6.219236227287444 -1.5646974892965893 9.823949465569871
-6.149989751369013 -1.5759140279557404 9.81797508983923
-6.074754136268243 -1.591098094812756 9.813484591452553
-6.0176311432385825 -1.5993669823787178 9.808688308502635
-5.954494339008544 -1.6102080564767394 9.805043105413072
-5.894264287579771 -1.62360084376098 9.804173286598147
-5.836501487957468 -1.6338247538657793 9.80228789679497
-5.737719617017769 -1.644942574414649 9.797353365447234
-5.670460406779551 -1.6527022148042865 9.796006914298694
-5.566642048077727 -1.656663265148222 9.79214107008604
-5.469193045971864 -1.6575133112952027 9.791982059672526
-5.366263569914404 -1.6611249405246986 9.80010291705556
-5.29353338933733 -1.6654750238931721 9.812666842655062
-5.185818099096466 -1.679453908476181 9.845841905801336
-5.118289969395711 -1.694826915644322 9.877462251232483
-5.0552821008333755 -1.7182839038260247 9.917738036310782
-5.022770692436627 -1.7323018182753618 9.94125687021241
-4.9246978904128405 -1.7749609110501865 10.016466319167673
-4.850941771073893 -1.8013572389860895 10.070460979794785
-4.781946941468728 -1.8253254455828238 10.11994944251978
-4.7244278982998775 -1.8414152769553276 10.158902743341093
-4.656780574516138 -1.8579648524551726 10.204278694288728
-4.602612618637275 -1.8693405877280695 10.240335348402066
-4.548473696183326 -1.883121090392982 10.27793514926569
-4.481149914333318 -1.9018794959217975 10.327630882301639
-4.419530473802879 -1.9157386304010782 10.370667416710774
-4.375156496271565 -1.9298352132881744 10.406586340479295
-4.319520083552301 -1.945881082148826 10.451126251608779
-4.266786137659668 -1.9673008728958354 10.498138652028393
-4.214636224460753 -1.9865592401242087 10.54530874643681
-4.170927521772418 -2.0035514578263056 10.587022402983026
-4.115630655949811 -2.0264072291437487 10.642585008304158
-4.0708343162016 -2.0487513002728006 10.69284947193022
-4.022798283162264 -2.070954120160968 10.74860681475792
-3.981980191085446 -2.0894120213063 10.799023377203577
-3.946143792095614 -2.1037439270417813 10.845375354429404
-3.905137366857524 -2.1136897137944795 10.897658453821563
-3.8733679519330675 -2.1236229093984327 10.945343575228744
-3.8370322055024833 -2.1364413274270913 11.010518969111887
-3.812897938877512 -2.1414111004993783 11.057361262814668
-3.786858110741039 -2.1474618049136898 11.113541321352264
-3.762981792380237 -2.1570691578309993 11.177706265534942
-3.7468213425737256 -2.16213474098258 11.225734954579716
-3.718341317373837 -2.161094632775719 11.30811321752966
-3.6993816576851732 -2.150935709954316 11.360351033843704
-3.6797298609791698 -2.134402033033952 11.423144954020442
-3.66833282301718 -2.123991963011994 11.484995704042639
-3.661173755578707 -2.112460497006535 11.546544189865509
-3.655485622330727 -2.09322530681597 11.62051597582195
-3.653181612307261 -2.066457329813794 11.700589183525167
-3.6624108547181398 -2.0419601650271715 11.79289831835323
-3.6695148130867827 -2.0156104980433884 11.859309349375454
-3.6746426835556307 -1.9925446286169386 11.906166141945294
-3.686297259810333 -1.9742078609664833 11.959603085973498
-3.6994582960735025 -1.9568408364454934 12.01281791549654
-3.71396819169496 -1.9398936115658927 12.0652770808879
-3.729655959218518 -1.9247893927762103 12.11191410699481
-3.747490160164003 -1.9074673799665396 12.16143686667856
-3.7702013006124346 -1.8831908806267221 12.221434880821352
-3.8006292547293876 -1.8538942382133903 12.295698753463752
-3.8256441053494687 -1.8328390572226998 12.35172821915085
-3.851673460781597 -1.8096679799168358 12.408845024422194
-3.8791049196484195 -1.7858304566895202 12.46671315692227
-3.9094458048844896 -1.763654884299675 12.527194310377633
-3.948297518227261 -1.7381579501186253 12.600380278344844
-3.9770370011124805 -1.7258402322196758 12.650959372552125
-4.017511415523423 -1.7099081370017584 12.717337242349819
-4.050428561991552 -1.690415571447673 12.77374414143097
-4.077743189746567 -1.6819532472919514 12.817616037199064
-4.114823259708958 -1.6685785602834322 12.874409966008947
-4.160914302870114 -1.637454793597957 12.955059639917936
-4.203372178875265 -1.6115712291193058 13.025914048402297
-4.2347663439571255 -1.5962820012235426 13.075277014929496
-4.262884915189202 -1.5863978922510324 13.116929939353863
-4.308841463416908 -1.5630993689081425 13.188710435106314
-4.346662522460317 -1.5434157281106136 13.24751197673732
-4.389389603141892 -1.525124293113553 13.310364688772301
-4.43522552468283 -1.500140327493173 13.381909548061994
-4.480107113708229 -1.4726019629568148 13.450951350322518
-4.5243380031280855 -1.4492099560409306 13.517881820517582
-4.575795400153354 -1.432272969140091 13.588123311018684
-4.606052770214565 -1.424496594528104 13.627513880062146
-4.638744847608184 -1.4122057454252688 13.673164642891308
-4.6933989362027395 -1.3904958918374128 13.748251008620246
-4.753905262228581 -1.3710969865050187 13.823998683395297
-4.8080023555671465 -1.3524899716803827 13.889334872162005
-4.841774667865112 -1.3405775377214773 13.929925347466943
-4.895895889402414 -1.3238304988737042 13.990108649257591
-4.941905199532329 -1.3090286246693652 14.04041103872956
-4.978801134494102 -1.2953585857047853 14.081190991253328
-5.036426943921386 -1.2760059372274988 14.139018281504512
-5.079161544188655 -1.2553695788811856 14.183550893751832
-5.12176970385861 -1.2332368148768658 14.227181243500294
-5.160142858579512 -1.2106080207748255 14.265952871893209
-5.199058404480275 -1.1881207446377502 14.304571538461715
-5.239244150363287 -1.1588901322428429 14.346350798716347
-5.276663950118216 -1.1248084533615272 14.386179451068065
-5.308904566260855 -1.0945655967234442 14.421378888130295
-5.340438202126988 -1.0622314088685818 14.457543057845896
-5.372871237529398 -1.027676758708591 14.49689534662137
-5.40452249152767 -0.9891127671074313 14.540064338478503
-5.431105688041485 -0.9329873132702304 14.58580435052221
-5.4497948133973075 -0.892464001855092 14.620365799039934
-5.472880058457119 -0.8415068021566934 14.664544869542482
-5.491503996070541 -0.7959388431897461 14.70028368586003
-5.5126966754586055 -0.7518812190049595 14.736513254278393
-5.541186441598059 -0.7045158429729059 14.775912876025979
-5.571976102719587 -0.6695477211527088 14.811588707229232
-5.614371389383301 -0.6306227575048156 14.851758894892958
-5.664779017920534 -0.589667868263037 14.892577476589382
-5.711113581105783 -0.5523059336515934 14.924261699081066
-5.756539725411128 -0.5159376488875074 14.95396463521586
-5.794087364711059 -0.4852193309115531 14.977763246486374
-5.843669945148823 -0.44481246596229784 15.008690711363727
-5.905362657803032 -0.395257779863877 15.04532187737126
-5.944109541291722 -0.36921642826644296 15.068680111995937
-5.9920468514480785 -0.340041508291431 15.096736476681981
-6.0492457360357985 -0.30614457422303154 15.129165094151187
-6.114781388013249 -0.2593321078385178 15.160968591584814
-6.163558191173951 -0.21951507854020358 15.180867923253958
-6.212059584984271 -0.17220508338197194 15.195440888220313
-6.262314587315817 -0.12419333157325285 15.208875038742539
-6.314931573315171 -0.07537808429875881 15.220856491212619
-6.364195660129934 -0.025563634811371472 15.227635668356163
-6.413653373531837 0.02290037952165891 15.234230349088993
-6.481825113438161 0.0817508606146693 15.24384523069312
-6.519327900852882 0.11843749753091348 15.245273335760748
-6.560332020093974 0.15813165204795387 15.24638603198991
