388
23.395139968165463 0.8863827217654872 2.1038913021386514
23.345049688996358 0.9142047306852978 2.1759694030413934
23.31969174544774 0.9253664824799546 2.211001698175862
23.256704440513932 0.9446994895401657 2.3050639264869277
23.21862516811548 0.9526551302413742 2.3622069027107906
23.17755885247979 0.9566989473591563 2.4277292755156927
23.13744344874458 0.9593902320473306 2.481284891082982
23.09199852211579 0.9607355401228856 2.537767163743241
23.0465256639374 0.9601090580914842 2.5946973379134923
23.000570420619866 0.9574889282994574 2.6513433047462613
22.94919522074556 0.9533739792247955 2.711569113040219
22.906370243394985 0.9482546255317357 2.7613455473262065
22.862321907416874 0.942003365846019 2.8130538136308814
22.81948216426734 0.9329868774926786 2.8722065901345073
22.777706946295023 0.9230644781383144 2.926707389166873
22.73389834493497 0.9143856674760884 2.9766867930101806
22.693154824543136 0.9053847416849155 3.0222314150556717
22.654752888296922 0.8936104650645169 3.0750179091971206
22.61634783220453 0.8808657196194409 3.1277467018018172
22.57824014969235 0.8667680978172356 3.1783100598942453
22.540651729436597 0.8517572763661749 3.223787108637295
22.50143332239891 0.8335642985265035 3.2701123268645644
22.453738923314422 0.8067120965168906 3.327254936394627
22.421765739480886 0.7858180837717113 3.3648729904980477
22.39118797193726 0.7628267110680578 3.40268483430201
22.358564995258142 0.7383083601938645 3.4392849295196
22.328833854620168 0.7146029968663616 3.4724050975685965
22.294975324184378 0.6854322532482828 3.511148353778743
22.22255828902485 0.6251080899147818 3.5878928524389475
22.189848701436606 0.5911678988647506 3.6329361279519046
22.16524123394127 0.564288445209753 3.6688237169082236
22.138116567704174 0.5365403276734853 3.7057483212889992
22.109521097463485 0.5072068738573234 3.745389433908319
22.078420965340793 0.4768336247301561 3.7866281847150494
22.044130015940613 0.4451221868120627 3.8301803486792703
22.012263271075497 0.4110773090008055 3.8789369619945426
21.97723247777047 0.3701100659641501 3.9394863284925754
21.95145410734549 0.3412366952608652 3.9817251944139955
21.9236004345166 0.31463851953688016 4.019796082849249
21.89447996938102 0.2860737399095088 4.05969598374384
21.858884436852428 0.25143277272760933 4.109866664244407
21.82761287656941 0.22155500334320566 4.152146923871921
21.798324050937048 0.19246370012358627 4.193299044047908
21.768376056383488 0.1568033260997561 4.2441001771751825
21.74226577221244 0.12612217456290153 4.287494172321775
21.69989384954573 0.09057843467176685 4.336560331306899
21.661651896954677 0.05798069864610733 4.381942091292066
21.626563729817896 0.022377253699965127 4.431147216705764
21.591350855853882 -0.010173574916791939 4.4759606114827495
21.53195470737481 -0.057556927081992004 4.541137579099521
21.47753535064989 -0.10099565652254405 4.600705630464734
21.4314512603766 -0.13799957085662218 4.651442176655877
21.388204732965875 -0.17311470150421338 4.699503102058694
21.32664806249748 -0.22008040674404317 4.7638582999693515
21.268439826343673 -0.26571277095698953 4.8260827447251895
21.225759086171816 -0.30196110525590614 4.875208228041576
21.183413787144183 -0.33840039887409734 4.92436009154093
21.136345055774186 -0.3746665337703443 4.973729936149935
21.093873294448855 -0.40808486046449177 5.019676861139525
21.04112705883921 -0.45206135987279206 5.076696735291762
20.995276817974876 -0.4995842319544601 5.137289155265197
20.941863982364627 -0.549239988259218 5.20150293540374
20.90170756975065 -0.5857462088384686 5.248005375991058
20.862475316390185 -0.6223523860105891 5.293908570237052
20.82470713936801 -0.659728481251308 5.339497804038588
20.786895642165547 -0.6966017030753084 5.38393221393517
20.747860178256406 -0.7307332294446978 5.425968546357902
20.700509069562916 -0.7705651226736294 5.474098854069847
20.66949152682953 -0.7969544827717168 5.505246430843421
20.63552171898742 -0.8228859753956126 5.535626430482603
20.574631037077708 -0.861899568415287 5.582664595789652
20.531993175376996 -0.8994244314447055 5.624206184832769
20.486685723783832 -0.9405233062209559 5.668176151280663
20.454435641953314 -0.9691596799123805 5.698363469411097
20.422541410754935 -0.9971409536324414 5.728043053161755
20.373085257078458 -1.04113430575199 5.773266394652074
20.32251944665314 -1.0768018414199338 5.810270052244466
20.27367949950248 -1.1119520700473222 5.846756380257212
20.21810563707621 -1.1557265571396043 5.890371188389363
20.16366995878737 -1.1965954367518346 5.9296077105535065
20.103279736586607 -1.2492885979235027 5.9783660984021605
20.048557503817324 -1.3093366439032335 6.033563080370984
19.990385436723077 -1.3532041289388856 6.07204188376517
19.941627877458828 -1.3959636230128862 6.108528903051193
19.897677706848736 -1.4321238761009751 6.1377287425671625
19.85365204169447 -1.4741264354767427 6.1738972693790934
19.80524302151596 -1.5227405969517607 6.212996557331541
19.76529210913993 -1.5498197275426082 6.233261462685222
19.714547483422518 -1.5822829288134885 6.255202945990003
19.65560060749903 -1.6213710859173798 6.279885962650123
19.598543584213765 -1.6671103062832655 6.311768257068637
19.540313522524887 -1.7104179976558256 6.3384568274264055
19.49271655069799 -1.7368849982424481 6.3498220606543505
19.438601871798827 -1.7682740635566527 6.363267070545957
19.369140245436906 -1.817661027899499 6.387842703428797
19.32662550106928 -1.8516433851234435 6.406108543926468
19.275358281893332 -1.8895317971402799 6.423442858837918
19.221242071907543 -1.9310762291579087 6.441829632364092
19.172860189431923 -1.975112253860849 6.465703703629265
19.145385666924362 -1.9992020850795553 6.47713544230038
19.099642927347965 -2.0393097814824226 6.4961694495506155
19.044939563753754 -2.086676767350836 6.517152784293909
18.992098113561998 -2.122838021918344 6.52506820800606
18.929447244855716 -2.1654904245178788 6.5340041075675135
18.885421997132543 -2.203813850750184 6.546829153509597
18.82072095774686 -2.256237234183942 6.561474585375953
18.7628419874569 -2.297131074256396 6.56664448942527
18.706340887238692 -2.333887745443881 6.568274118480808
18.648707625272984 -2.3764885550811248 6.5730783145005205
18.589137565376348 -2.4168744191553126 6.573831744077701
18.529071150239496 -2.449616484539764 6.567118815321814
18.470644161677036 -2.482360639586776 6.559973123951762
18.39632310224303 -2.523877794961562 6.549304723673275
18.337844482801813 -2.554554625603432 6.538560963661144
18.282262747248126 -2.582503354630894 6.526216471898664
18.218255542087626 -2.616970639339492 6.5131334736603925
18.15870863654111 -2.649502290651031 6.500415428290582
18.101127546415075 -2.6829332459286563 6.4879991716029295
18.044205312758518 -2.717688964457395 6.476046439504227
17.986918710958122 -2.752639328365179 6.463121356451246
17.92898749315661 -2.78810712676704 6.449040153463065
17.859890365492763 -2.8315065004370146 6.431996604730079
17.780441855268883 -2.8765451547301173 6.4084452556263045
17.725129153212027 -2.90932523807608 6.394751594099526
17.669696963840824 -2.9317634332040132 6.374465807247736
17.61012789555934 -2.953393789970821 6.351838449168355
17.549517608509056 -2.976344566086026 6.329851139321855
17.485533039177923 -3.003048828277159 6.309522778932113
17.40317697277734 -3.039554713073631 6.2831269025577985
17.3117263119146 -3.0790055363742588 6.252668323174015
17.261080710216817 -3.1030896809603576 6.237211341240556
17.205383680357105 -3.133177225180112 6.221438809602594
17.116123720311204 -3.1660018460993307 6.183502010156484
17.034562135769924 -3.1859928104907573 6.141130145931655
16.971312782259176 -3.1989810645892742 6.10476095634899
16.9112236350214 -3.2145199226213728 6.069501853505745
16.851987652818504 -3.2323308051751405 6.034607266583503
16.795353238061892 -3.2555140696529246 6.001968693260624
16.74024117414669 -3.281550418293418 5.969706008377434
16.685664059860866 -3.307529035753603 5.934237461780466
16.601841622551873 -3.357297436732259 5.877616312035341
16.544066137745233 -3.3990749667460065 5.835849419221908
16.499163220029764 -3.432993843075127 5.80012564651809
16.456203865437377 -3.4668600810979573 5.758907796704889
16.41395668949925 -3.503397000110451 5.716614118095858
16.36487337684271 -3.551321726230857 5.656599899837074
16.307623046621025 -3.611284134006716 5.570896799130235
16.275592181924317 -3.6449699977289467 5.510049975825881
16.255508007928626 -3.668803922261786 5.46587612533923
16.23663978305423 -3.694036687559811 5.420409667142538
16.219519840240253 -3.720028238378521 5.374441446686882
16.20435265585116 -3.7383765201587527 5.326189595725916
16.18854199667356 -3.7568576881709137 5.2705845927876425
16.1738598227297 -3.775416004102348 5.212498004291655
16.165317195730463 -3.7882285733299734 5.17483474864909
16.15527054047279 -3.8032962166648834 5.1305431400158845
16.14019682442413 -3.825222041934301 5.052959347668928
16.128625167303603 -3.8390255605598713 4.985253330891709
16.11883686076954 -3.8543858293511053 4.919301740860979
16.109693343770736 -3.872894982501974 4.85268691946626
16.0992908052606 -3.897357758418296 4.773397508660963
16.093081672868237 -3.9088794495208687 4.717066458750212
16.08590289353342 -3.9212076309505632 4.644706512459159
16.07921068008004 -3.9310011820511916 4.570308753802781
16.075178751012885 -3.9374056820971473 4.520279134227263
16.07211793136229 -3.944213901054105 4.47023226872078
16.0680427682033 -3.9515058269680607 4.420255724135732
16.065016294042152 -3.9598765482922205 4.370558616912195
16.061706640111115 -3.971360661257392 4.311131474444075
16.057011582787364 -3.9858713201974223 4.22213275817642
16.05410446848033 -3.9970505552304068 4.14860115592098
16.050959244063662 -4.007322002754986 4.0710896881937355
16.04973598927835 -4.013500367559706 4.019775938296972
16.048462279647886 -4.019568813971352 3.9693431738596696
16.047591130721038 -4.025930096338483 3.9185869342287476
16.046359325782994 -4.032630409596781 3.8688648650450026
16.045465023348704 -4.040075296137232 3.8142773777745327
16.04420152210958 -4.05181490055609 3.720128758488299
16.043402840134053 -4.059817589027453 3.651484977530273
16.0431418662279 -4.07770310921426 3.5514800643848567
16.043658925949583 -4.093364975421455 3.4781450556362565
16.044678534115366 -4.115078036568081 3.386793764802803
16.047384642266582 -4.150946534237628 3.2971072505757912
16.048768635075223 -4.1696579420605016 3.2445706833819092
16.050245913535473 -4.189604631545027 3.1709729155069906
16.051228241852073 -4.2010561046383295 3.1222152810579105
16.052389942329754 -4.219478228420904 3.052121342504631
16.053633862126297 -4.23350252403633 2.9991423726608644
16.056037762021322 -4.2578659359446185 2.9372511670901766
16.05866898788606 -4.28243774454897 2.864810083134317
16.061527169845533 -4.3024973823638515 2.8034295819176775
16.066248557349944 -4.332717535925971 2.7177607239459634
16.068858529767038 -4.347914471493185 2.670190792375824
16.072603442406052 -4.362198423647637 2.6218700194868627
16.076316090006937 -4.375221152213072 2.572499185792545
16.080325269451 -4.388423835127588 2.523696252418819
16.084196888438356 -4.403191875503582 2.4750941417271384
16.092487865715093 -4.426568173411818 2.4041805560992704
16.103070346828417 -4.457485231135035 2.303124031899665
16.112131676298244 -4.474981096788728 2.2230238220064824
16.11983296656401 -4.491946623973364 2.1615900767131646
16.132829290744763 -4.516477286653624 2.0762400727617383
16.144887142257108 -4.5393218189065205 2.0053583613217447
16.16064013749462 -4.572995515813545 1.927048377781038
16.173127305946075 -4.597087603158091 1.8671108111844963
16.186857913165838 -4.621341774988579 1.806140845957215
16.20124633818734 -4.643122177480816 1.749100602310273
16.221121596932093 -4.671870254268212 1.6682906357984688
16.241797162320886 -4.697278824249283 1.5908600928057464
16.25787329172141 -4.712934303301772 1.53118646160328
16.275447938324298 -4.726520839147163 1.4730967633700964
16.297542333039036 -4.744926366447425 1.404423133724709
16.320079197283416 -4.7678581298846066 1.3469650867106662
16.34507291402585 -4.796800260776044 1.289303472432532
16.367190632581355 -4.820762993549934 1.2436419748047642
16.419196610328576 -4.884285162333654 1.1634792418966278
16.454585641623407 -4.916378998765959 1.111775643147379
16.48127207956779 -4.933631922308244 1.07167163088583
16.523934868616976 -4.956929671294814 1.0150330984969753
16.568462147421275 -4.979293946405974 0.9622090667310568
16.611097969044188 -4.999124521228163 0.9185594290874071
16.64275052774121 -5.0129228016784 0.8907401040288376
16.674081207060595 -5.026580300847723 0.8632034420764767
16.755344860952157 -5.05919638714686 0.8042690643036718
16.821331854952344 -5.0879486889175745 0.7689011455234884
16.886482933646214 -5.117298455018332 0.7410248226971401
16.95005021637297 -5.144647410710487 0.7183881979413038
17.013248027054754 -5.162047358682189 0.6933382615148322
17.074658428763698 -5.176718395883533 0.670492137851038
17.158607832455818 -5.199339528636504 0.6457852896309748
17.219179373502058 -5.220012667452565 0.6332935934241974
17.281809240207785 -5.240683121970516 0.6235244982124377
17.339577186615262 -5.258538689086926 0.6152827131626091
17.40012060181413 -5.2784763472915035 0.6122117295809937
17.454764776842104 -5.296152800955076 0.6120769383673381
17.515808178824486 -5.313754238693392 0.6142756619984469
17.578927257342507 -5.330068586938253 0.617201465425778
17.643431531250776 -5.344936775625817 0.622837176140981
17.72794092414138 -5.362464664815647 0.6310567461902021
17.783110594708642 -5.377642726336624 0.6422333180741022
17.847641475355108 -5.394215130912496 0.6554593391242607
17.916518131463608 -5.411497870499998 0.6713584471880987
17.984499086886657 -5.4253719836956265 0.6855497124786933
18.05564169354659 -5.437208257348656 0.6997923767041461
18.12231560687545 -5.444865511573804 0.7111600602431869
18.191018415270396 -5.452813243204755 0.7236183425301115
18.267616533277316 -5.461299173634265 0.7387043975877146
18.325520064740896 -5.466928443131696 0.7498130706550374
18.393132637527987 -5.474683974593509 0.7647634259737988
18.452334345804093 -5.484450209187411 0.7815126057627251
18.503635674963245 -5.494336380270671 0.7976825197561586
18.574497176747887 -5.511345866562879 0.8240420968979407
18.64343269434923 -5.514585086848111 0.8364684484751757
18.722101955458488 -5.5200610949842694 0.8563770132332258
18.80462985089557 -5.529833401712391 0.8841059120656074
18.882678671779523 -5.535120933067118 0.910245254223502
18.95854257918452 -5.536083644039085 0.9361390775179443
19.023467117916876 -5.533532703139416 0.9576951867218852
19.128417367481717 -5.516337132327015 0.9857154914650339
19.197780255284563 -5.5099331781391125 1.0089868721223172
19.246771867858392 -5.501877495959022 1.0255216328111731
19.310939066597886 -5.495108103236102 1.0485356586658585
19.378813367458772 -5.490380981538095 1.0734419765826302
19.450326711784342 -5.4861806971681375 1.0995044295509708
19.534460651339955 -5.477202600996948 1.1263521258691291
19.637411408751007 -5.465281596108392 1.156449586927089
19.70686011499598 -5.46214050890439 1.1797390338315377
19.763998148231376 -5.452780635993529 1.1951745399485931
19.882329824257205 -5.423661766217334 1.2201703051738613
19.957738595749838 -5.394969122503191 1.229019912580298
20.003840438055004 -5.375103281816475 1.232490664005947
20.075846585125245 -5.351795482654072 1.2436618550199987
20.146711787268487 -5.332889771741934 1.2574680686555975
20.197862755757814 -5.320428896894592 1.2683597399285138
20.248093675194742 -5.308119795407146 1.2791516748539231
20.335185008463057 -5.278996199756724 1.2916186352999879
20.39996365110579 -5.262172225198725 1.3053802405244048
20.490052267121953 -5.248114465658908 1.330607379322132
20.547983315337593 -5.236465781945899 1.3455863368146352
20.613000289748484 -5.224036850065966 1.3631767410110034
20.67582625998525 -5.2139811551858095 1.381746506335357
20.73031764533568 -5.205026605700041 1.3987761435374826
20.810735936377938 -5.189872402098869 1.4210442192478165
20.873666706572426 -5.177583585024264 1.4386865803038034
20.948045242974985 -5.156923322976343 1.4560044180850866
21.04178262433597 -5.12677626159717 1.4733046412826662
21.092370966364342 -5.117132740395771 1.4894878126350113
21.16449026358247 -5.088560615643615 1.4993664828879383
21.2604666540938 -5.039127781568066 1.5028956814172467
21.323177275662093 -4.98647857752559 1.486942336632001
21.37852524710723 -4.947457887232693 1.480127736364985
21.422319012963538 -4.906993434479004 1.4664051022065516
21.496943131969566 -4.848265815043371 1.4527441087425728
21.535760991691074 -4.81620799676972 1.4439602816310937
21.597091829805862 -4.760543359607123 1.4255126647181258
21.638137969667874 -4.718458892815452 1.4085402470501012
21.670313517994604 -4.675318420995346 1.3850254170293685
21.70700468661581 -4.621324175214879 1.3534467766151228
21.745475685345504 -4.570003867993895 1.3260070098225194
21.7827167806277 -4.52217598929756 1.3028378869240238
21.816383642535364 -4.479420051280767 1.2821739738616347
21.85543056552348 -4.423633937382439 1.2531500228653765
21.890435896870912 -4.373343960705709 1.2279237096892612
21.924768422821845 -4.330091118205118 1.2104126643998505
21.967551891608995 -4.279190209367323 1.1929446098021974
22.001829691753116 -4.227683792946715 1.1696056379612298
22.06097718037537 -4.157813369028238 1.150732932871005
22.124179580500236 -4.084470920468968 1.1359614356543313
22.167064871312533 -4.035237054784236 1.127450469570014
22.204801730363773 -3.9907565301516903 1.1202331990908423
22.269576277172977 -3.9077158289324534 1.1047405851395227
22.332460492414825 -3.8300881022484714 1.0951656314956537
22.373103757472983 -3.7857418316255234 1.0957170738880686
22.410071889650826 -3.74073474166541 1.0919338213229315
22.45467643316299 -3.6778676346878743 1.0814253525560757
22.48657624730769 -3.6352841027316845 1.075926057196806
22.536230231084033 -3.5729461606425255 1.0713938134154604
22.57227912816537 -3.530047158550506 1.0704825744100939
22.614425759783654 -3.479508402588618 1.0691076530355885
22.65582280490305 -3.427693590009883 1.0665145877512434
22.69616317110426 -3.373588611311639 1.0613780677879778
22.744508310407625 -3.313149992898239 1.0593778298198138
22.783589594784676 -3.2669072122222262 1.0602402525654546
22.82793308256215 -3.2118852694891133 1.0597085504286405
22.871148727725668 -3.1571358676980736 1.0587801817836038
22.914674063695585 -3.101146699612627 1.057714722593957
22.95949346995542 -3.0419997725995613 1.0565592445026035
23.000213305825934 -2.987320266348479 1.0547844891902503
23.04219965834978 -2.929770964800599 1.0535255548909803
23.081979063449243 -2.8700178959942986 1.0493766822089428
23.120455935291602 -2.810936330871286 1.045220831319614
23.15881880806363 -2.7513564663099497 1.0417772310711655
23.19767762458033 -2.6722873858607676 1.0274502073450358
23.230996935661903 -2.6142925513189628 1.0228595758018022
23.258686712785494 -2.565797330406247 1.0196881262369102
23.292734686050192 -2.5057847963647926 1.0167341332477347
23.325008365785468 -2.44545068517557 1.0132815722574207
23.357413838048636 -2.3758033200482656 1.0062924453978068
23.37885798645984 -2.3213601517217977 0.9987296943091124
23.403908124922296 -2.256655235950961 0.9909787114565507
23.427294897437243 -2.199149429420471 0.98696296235617
23.453238710712263 -2.13661208219515 0.9845831712087625
23.483431998506422 -2.0874329227442736 0.9931427548358385
23.512412589903498 -2.0345245251038 1.0009914479951476
23.54472833725137 -1.9753118030005954 1.0112312417108558
23.585105785602174 -1.903882815985802 1.0273444550893194
23.606328896936553 -1.847133688689564 1.0317751527894763
23.62626780457644 -1.7937137965604664 1.0369136627278928
23.640773726167154 -1.743304364250878 1.0392506226836287
23.658749043841414 -1.663734122002864 1.0395265842997525
23.672336630341352 -1.5926045135263363 1.040027943576876
23.69081224770306 -1.498339564191905 1.0426147778438342
23.723858938558873 -1.4172704698002168 1.0659062196385518
23.760216865220862 -1.3441533907255614 1.0955717131185367
23.7749826322782 -1.275497279329537 1.1063947637889844
23.813831527310853 -1.1833259109762937 1.1433904301494584
23.84432811832478 -1.0883615968060356 1.1758340691843414
23.858549072544513 -1.0235217996481445 1.1932719250459436
23.868069890150785 -0.9596739030472754 1.2079690155740734
23.87808431853543 -0.8964576516132683 1.2247028200375012
23.874217452612637 -0.8299808632185766 1.2297569609311974
23.870486986690306 -0.7648026103375027 1.2358258347996212
23.866302238828645 -0.7135601851655158 1.242108153070943
23.863705215193733 -0.6382141744443985 1.256559606152797
23.860548421750668 -0.5770157160048008 1.2695327043755094
23.858178412698912 -0.5170861614100686 1.2846549936632612
23.855332131822692 -0.4583953242900456 1.3012308757388094
23.850762844325903 -0.397131703059888 1.3187298741238327
23.836291226328452 -0.2908651739678674 1.3476172008475413
23.81776806481626 -0.21346208673509426 1.3639496482670848
23.802533514363347 -0.12834081916632867 1.3907417209528616
23.775014536238235 -0.03942424572579295 1.4103537056869202
23.768306580429485 0.007248931397187075 1.431055750839131
23.760010035907637 0.0712685762708758 1.4628235166934802
23.752131714954775 0.13436093463051701 1.4967733740603077
23.74291898347531 0.19591887749536907 1.5323258436207272
23.733225400065667 0.25651664740437985 1.5685772082666056
23.719587623452096 0.31605932869911246 1.6037079682003523
23.703419254535834 0.37443552222578536 1.6383836597883206
23.685419308338496 0.4312961940997302 1.6727161564638764
23.659061035506586 0.49702588485138044 1.7104371067168738
23.63576232835839 0.5462772603808146 1.7389421329862187
23.60612674962148 0.6123976058070557 1.7883866079695454
23.57616335656891 0.6692611858136921 1.832142825726895
23.544662660850708 0.7192052570471055 1.8723454782302338
23.523908786805066 0.7666152822060335 1.9408141296465558
23.486693675915898 0.8057518495385985 1.9732561070449455
23.439634481212522 0.8519671639296997 2.0375034714326388
