253
13.025010338074466 4.529007903281289 19.75053391445612
12.925322395851067 4.490567925128776 19.728357917398093
12.81878332624502 4.467684932617874 19.68165783982851
12.720057698978394 4.4438053176743 19.638251680413163
12.647022436518723 4.413494702260941 19.614565614757694
12.593216581981594 4.387512429059905 19.59837279786764
12.494560097842188 4.348332931308591 19.559861302314516
12.360597733139372 4.2975484782915165 19.501557954966536
12.279212910254675 4.253322913885425 19.47239594790404
12.203507802633617 4.204902295013076 19.446471771908357
12.156369950352495 4.177186447195239 19.427423789358023
12.10407894122367 4.149497584683819 19.40366585746098
12.029339538058176 4.109564629313493 19.367885827502676
11.975806340902505 4.0808882793291605 19.341555010313463
11.908710068760385 4.043790600546788 19.3053222524672
11.809634980610427 3.974808395444448 19.250728250208745
11.752027907977109 3.9259945341136246 19.217147264600413
11.679274788201676 3.847347620431722 19.171700011820924
11.609618082432402 3.776078454930321 19.12206696084047
11.561754577531696 3.7254964837141626 19.082297675810217
11.508534935855845 3.672834273599448 19.03037931346139
11.462854232821504 3.642325843029285 18.97497992972618
11.431017498155674 3.6347042293385003 18.918786328966505
11.40121371341931 3.6202267940783335 18.863201195198542
11.373614701474953 3.580436230039516 18.811570475120952
11.336635386589647 3.537396449674124 18.726623886599313
11.31110094848769 3.485580099326695 18.67280750813563
11.286656033730699 3.4432316769639977 18.608941379957926
11.258863262662427 3.381031829868715 18.552968967677298
11.233802418085507 3.328083063996945 18.50057791837403
11.209576615840565 3.281448551880625 18.44745532049597
11.191081766300496 3.2467010838439405 18.410134717214028
11.16885100461981 3.209812048156687 18.358159785344235
11.151401960416116 3.1844240645671844 18.312309085824268
11.120971827664485 3.1430119343927876 18.233700830044477
11.097726798611959 3.1131409203541507 18.173675781379018
11.076254953529025 3.0827209099859614 18.126142220471436
11.060213735779888 3.069464409446069 18.07169512170959
11.032638407831067 3.0448379211410126 17.979553050994568
11.005239987632473 3.020747136402756 17.889650557837392
10.977980078577993 2.989971509821504 17.80841509635006
10.956589215393036 2.9620519092947637 17.74925310154039
10.92420180399876 2.9224605282389797 17.649851841310706
10.904141632819597 2.8968845915546577 17.585929455669877
10.888780868079383 2.874399318165218 17.537537493000777
10.865980032881668 2.831816769720321 17.472661573910692
10.843699552494243 2.7921204919235647 17.400588586327594
10.826185451207959 2.758247175330694 17.33528969806613
10.814099546475392 2.7341306138539974 17.281237115594916
10.798380577488828 2.6960588338774105 17.21051298946249
10.787031481512507 2.663281619681908 17.14925747555955
10.77723608154409 2.6292420500548683 17.089020931484832
10.76866747618564 2.592453763250437 17.025692707035176
10.762995758516047 2.551673797678614 16.965609281554247
10.759008037286131 2.5157513906828317 16.908971805667427
10.759060052306415 2.487200203003286 16.861111437784732
10.763078195281496 2.431618545270788 16.77520920350441
10.771451474742886 2.380613162729656 16.69886648586469
10.782970983942278 2.3415119736872256 16.636295980847052
10.797274181227069 2.2871699556184257 16.576854725587644
10.808109519851907 2.2489623643068377 16.538277022868844
10.82500121540103 2.1986820671381864 16.487993127445197
10.845220063338814 2.152887054473596 16.42953191739929
10.872464987411542 2.1036183967999467 16.353857304061993
10.893826078926152 2.0689083538123976 16.297338888428303
10.917149511222375 2.033430500816878 16.240758993196522
10.941502102826428 1.9945065800156858 16.186524160229816
10.965919805403598 1.9549363810370541 16.135984749236698
10.993910881524284 1.915271095400304 16.078127031956633
11.020533175876814 1.8768800427925354 16.02653302383478
11.050542286043097 1.82955809128192 15.974652827194054
11.080756426163775 1.7864394055729107 15.92210662827301
11.110259567394289 1.7329368834883934 15.88042402029116
11.130465927773686 1.6955346985112587 15.853305591703055
11.15386654564156 1.6569962994813257 15.82193410743806
11.207278107091287 1.6114253341156266 15.726391679339788
11.24945684198136 1.601651949534505 15.620184457824804
11.27716970582123 1.6121153001295354 15.575646264905876
11.309873227154021 1.606831476696209 15.510865702425084
11.334559868052427 1.5981476794306324 15.467128503789201
11.365356042775632 1.5846008078468985 15.414631654236475
11.406767092704635 1.553207493202016 15.35256461526048
11.44171008761676 1.5199596268775604 15.307066869754404
11.468454614725902 1.4936983262004262 15.271096996889444
11.512116421641247 1.4338710730636033 15.234257809373702
11.54804492933409 1.37715262039366 15.205412846668835
11.582729713654533 1.3384614857094228 15.171239129134678
11.631075594180482 1.2952065488608298 15.119720581194748
11.663463307647504 1.2657591629928662 15.088929323496442
11.696868910350345 1.2370006622845018 15.056863255543671
11.730060418602143 1.2110181241376827 15.026374962339196
11.763824908868125 1.1906440990374418 14.99319968237924
11.798086107635978 1.1731466443222394 14.960991370068026
11.86810485841107 1.1346654670241614 14.904209292545149
11.905420190845419 1.1130408220074395 14.877217147768267
11.97889581192937 1.0646643702742364 14.834493468020483
12.025857730452888 1.025637899966852 14.813974015429782
12.08204484679533 0.9944917859295177 14.78584911880641
12.163275221442067 0.9534389646077439 14.748818749150077
12.249312947542714 0.9178390173017636 14.713412724116544
12.294429406715793 0.8958731458847893 14.698190609435745
12.349416051546125 0.8699618987540612 14.683046281324138
12.411089975851525 0.8342368506675213 14.67088928200013
12.469184925545141 0.7994051530363986 14.662919223908109
12.527523462060106 0.7656131428472885 14.656179455022057
12.586340568334174 0.7357298808547486 14.649739743249825
12.644717376528629 0.7064424943671217 14.644514816066028
12.708518519593857 0.6762956765990202 14.640572994096084
12.794755470223405 0.6500401703877781 14.63136507792883
12.855108202981548 0.6281894963702126 14.628441896211209
12.919671647234269 0.6052533690728403 14.626875599256703
12.979345198280933 0.5880591808558673 14.625252897526934
13.041477449113714 0.5705461405192567 14.625470384115461
13.105194977541963 0.5571525492706015 14.626891862815492
13.168110696690308 0.5497516074586823 14.628189885980872
13.222792052547108 0.5465693954041535 14.630448057614133
13.297139120884395 0.5478479129622762 14.632482819370892
13.37665092798622 0.5510026971564301 14.638255971834486
13.437867270811655 0.5496762033403402 14.646373893849105
13.49050665733371 0.5483532264981188 14.655579907185126
13.554609416143117 0.5453627981873825 14.668936921274327
13.617591598397022 0.5343423388814406 14.689098158199764
13.701271404963723 0.51910289766427 14.718828441319095
13.772630802596833 0.5059307904527734 14.74745177281294
13.827525166808437 0.49688458766792887 14.770673885574814
13.89819652962551 0.4961266576203054 14.79739831406492
13.982726001060401 0.49394178137449196 14.832923004795896
14.081180238946795 0.48062217060124524 14.884364921743694
14.131195071904184 0.48275724439070866 14.907342332610508
14.186284113381124 0.4847269094114972 14.933738532019712
14.277345806481742 0.48927775126599804 14.981278573795644
14.37024667768292 0.5101200105493702 15.022760337996008
14.424747315322152 0.5258589219650365 15.04667176834016
14.480191941328467 0.543409615042979 15.070554527269207
14.574495957332033 0.5741060278318553 15.1130781955345
14.648838359886687 0.5825850251071512 15.158103396285457
14.704929719596253 0.5876092164960249 15.19445288770586
14.780246842040281 0.5966857029032646 15.242970813098339
14.833807821029197 0.5997969465593214 15.282762646223
14.913645386154336 0.622800846225896 15.33259951500794
14.955224527831094 0.6345917724151928 15.360004047117132
15.015025092529672 0.6556742624854095 15.398563404302646
15.066938153328124 0.675876959653291 15.432558266632192
15.12115308146321 0.6979254839536944 15.469646320330657
15.181468984137991 0.739899611448555 15.500301727558663
15.230316436340965 0.7617081245557131 15.537370954754739
15.272268023681145 0.7871332750901805 15.566190949239322
15.318507649014704 0.8210861184961298 15.595053991107815
15.388117859137372 0.8686000370099756 15.646221210597288
15.431580869186956 0.8940554049907223 15.680983598860019
15.496933438487597 0.9576131645506234 15.727109216984445
15.548891325781693 1.0024330527659815 15.770561897470568
15.611972961424858 1.0600619600855492 15.828931017741345
15.66411015776831 1.1050598892645336 15.88848033971931
15.691710069206694 1.133687819859522 15.920855225736856
15.734009639197286 1.166353373836024 15.98267288819906
15.76405180764618 1.1882656780987453 16.032941917681015
15.780878969406213 1.2007000433788948 16.064842252973598
15.813984037997882 1.2264312633861076 16.129484784262267
15.855359406171345 1.2611164244126136 16.212858447959967
15.89357424244918 1.3125721752059645 16.279971695297924
15.91723663699019 1.3472434483184894 16.323509908941112
15.94573924025326 1.3922567962269154 16.37472061253866
15.975105866500758 1.4409194822025582 16.428582475052586
15.999120443404463 1.4773921040037148 16.481956908057846
16.024001626940358 1.525885603889613 16.525656356406422
16.05098368443671 1.578627825267956 16.574315009972608
16.07504740440518 1.6266317736187392 16.620476916786295
16.097851674001117 1.6733036513564252 16.665708422831365
16.11991838823563 1.7161839668212713 16.718012970408772
16.139440447542565 1.7521695847618235 16.770446932208472
16.159516281924986 1.7872843638692488 16.84522425524655
16.175919534039814 1.8170074914227767 16.90889872383194
16.191286999698534 1.8478378756783596 16.971232103319103
16.20718914113746 1.882384717495482 17.03765350714069
16.2209900830465 1.9171625834041113 17.087610772286453
16.23971003361425 1.9674830908194554 17.15646090917567
16.249782155609548 1.9970944442360745 17.197809310233566
16.260846936020712 2.031190043730552 17.245605356062022
16.27098010920019 2.0655884777167337 17.29989791857828
16.283660646300838 2.116618204268714 17.379585871779284
16.30050653207365 2.1910759647452327 17.456554855156213
16.309852260130526 2.2414421583033635 17.498622230904612
16.32546030633225 2.334239239141513 17.549053171437762
16.335116834030675 2.4119514846156234 17.59375724853347
16.342789500752648 2.4873175091357806 17.627478489945467
16.348321014092296 2.54708683667575 17.653049051138503
16.34786654468097 2.612778858546391 17.698752984677377
16.34836266478193 2.690538328223073 17.73694897556003
16.34547117729949 2.745529964132598 17.775459324906805
16.340297983517946 2.789844692496102 17.812227054725327
16.33323962652169 2.841634023998229 17.854519125270137
16.327128597636225 2.8803371859205162 17.888072184907706
16.313246753257744 2.93798416622434 17.951132634866777
16.300008571742048 2.97907865369395 18.004722240784616
16.285987755657214 3.0196710078506444 18.05787411219899
16.272990981826894 3.0538857853509382 18.101032518742066
16.251815424561638 3.095167899987243 18.175062433461036
16.23647453407861 3.130355220409502 18.221548500490755
16.216432625807258 3.182032927715878 18.273793059017102
16.202619405402967 3.227144905148137 18.30532196772814
16.186091021639022 3.2693556878114096 18.33933829119414
16.16744058256792 3.3306871064271277 18.37284035267344
16.13905662368337 3.4047415423942864 18.415937963257143
16.083917223540396 3.5201856272455636 18.48564039042996
16.03365261351628 3.6067679545794453 18.536677700814934
15.991660464433725 3.65724821617395 18.591889608156297
15.957587020880705 3.6941215947573998 18.63253852443613
15.923131340577445 3.7250057671880814 18.683341966689532
15.887317851284129 3.7560253466542335 18.732694893647697
15.842546850364789 3.7992763427276293 18.779148158588633
15.802390007783567 3.835312275755853 18.818834614466837
15.760899396012654 3.879088305960903 18.83935177359976
15.723517523494422 3.9139240069411576 18.86024294353166
15.668733543914124 3.952543796277583 18.920434878200417
15.631262847064825 3.9765845917704317 18.966190823793298
15.588322809108254 4.002956985297854 19.021416484861902
15.551564471119425 4.026561687035737 19.064343551521482
15.442051133317745 4.1088405107471315 19.105796203527476
15.386032271241808 4.1480525033775235 19.11524287378544
15.349002037636188 4.173972267092898 19.121485875616635
15.285282246766984 4.211071938737608 19.143065128533493
15.205136053179064 4.250690336916812 19.186537644717525
15.160359920876934 4.270756378787717 19.217497461101786
15.103675109736676 4.295670775882405 19.24680664224217
15.03796558591161 4.3231088919491 19.278448486904843
14.983829568964573 4.344051525106955 19.306191453732445
14.927515257286133 4.365322970862985 19.331102238259263
14.856149378260591 4.390420962285652 19.374852671311714
14.803946762967552 4.4080106509705805 19.408781877968025
14.74542721782659 4.426964259024117 19.44293148711204
14.672582120925636 4.4505021047299484 19.485678661405103
14.567842947675501 4.480725133823734 19.5263003452443
14.499090478053596 4.499704824455745 19.557327097540394
14.433079508554458 4.516800514473608 19.585138994214553
14.36773074624366 4.5335279837934275 19.61400663821398
14.30465498554928 4.547187002932299 19.629497295591484
14.204665360892534 4.5668610633730085 19.65057067025117
14.099661764465946 4.588645672044415 19.658462976286458
14.0408689651399 4.60192613564685 19.663988029405466
13.984004389959162 4.613889011279423 19.67678957784733
13.91467597255409 4.628018465044183 19.693893373276346
13.852794571522368 4.63876328443604 19.708115790316093
13.78830883870692 4.648993354672701 19.71888800829511
13.725170383137616 4.657079968141506 19.726457897941955
13.662808913944797 4.6627273509631815 19.735142056233023
13.567660548193132 4.664863870412831 19.747147062068287
13.479327749732505 4.653872367548573 19.77085292511545
13.418787292304632 4.645427149941981 19.775627688748692
13.33034987395019 4.633337869301095 19.771343289193744
13.2282486634551 4.6060170622880205 19.769831727947995
13.155199855969704 4.573571481209715 19.774981629889055
13.084091149004054 4.55306854483466 19.75911134403607
