281
-9.085120145579005 4.847373760416637 23.242142413171866
-9.140190397959723 4.8276395598826936 23.186992307150916
-9.187008501958521 4.799890295039644 23.140789413146102
-9.23497360198752 4.75213877273119 23.094022507579467
-9.26605972779697 4.705319873714882 23.05983795839412
-9.295347464763847 4.666754953357854 23.010523079338622
-9.32242847884887 4.603022969121203 22.954280121857884
-9.342312834013153 4.5353248768223615 22.890928433493286
-9.353287510166245 4.481033299226736 22.84422591878843
-9.36007907978769 4.435635934020468 22.798773312885235
-9.364634045682852 4.403214342276387 22.754377946370415
-9.368452311063319 4.346994516676359 22.69867836089641
-9.368485451624315 4.320257853262613 22.647508453081414
-9.366638175477238 4.282254828632925 22.58849070066734
-9.36284401081864 4.265136425698828 22.516016605968748
-9.357750963106657 4.260821561418977 22.443805004757834
-9.353197571521136 4.247553889995548 22.39441012865761
-9.344471059893072 4.23573550522934 22.301019292310333
-9.338637392693531 4.223305143111515 22.238491713946186
-9.329503174261623 4.198936064261415 22.16684753227472
-9.321014487112372 4.1752389726271355 22.107664905058787
-9.312529512836585 4.15264415961903 22.049925205457196
-9.300549694030204 4.129706344533109 21.97703676354751
-9.292783123268139 4.110649001653758 21.92521278075868
-9.276256758915817 4.078057116688697 21.82612127503791
-9.266915138308496 4.060182866740656 21.77129422479603
-9.250427088477398 4.021041411890742 21.691052170765236
-9.241190801379066 3.9983802433833473 21.64454436784302
-9.228307490380523 3.968532013069167 21.583014908234468
-9.210071702096277 3.9261503795751294 21.505238503036175
-9.198627735580809 3.8990485273680484 21.450290203369686
-9.188853825053817 3.877979810410702 21.405418617360827
-9.171310641240984 3.8524218778283323 21.32548544037842
-9.15148576883857 3.823484682553538 21.234941809879427
-9.137639339335461 3.8027879910221465 21.1698056163879
-9.131437038615655 3.793399567276766 21.140325738834996
-9.125013196902088 3.7844105362620466 21.11174618219655
-9.104626789763529 3.7540756498228998 21.024842363922023
-9.09376432946293 3.742518498320856 20.976696903171547
-9.075029560135345 3.7100377699973377 20.90478957166804
-9.061781216035621 3.698131448408846 20.845562552041795
-9.042408774496147 3.6754753049478737 20.76695610646231
-9.020350719749567 3.652996329298632 20.684547133988854
-9.006431630797339 3.646285170286517 20.63017827837236
-8.989457926025764 3.6353947641190185 20.571474063813252
-8.969539822063663 3.625005295914005 20.50509283607214
-8.944509295197674 3.616262824119578 20.422430637823982
-8.92760962683291 3.6277135241210816 20.36458871446973
-8.911605399781713 3.639361617266716 20.312447547124286
-8.882734515128542 3.647849242426055 20.22825683072674
-8.865453222724579 3.6551934043008467 20.174124304917825
-8.833430357834727 3.6580838576359618 20.09791331325263
-8.806796883490557 3.6631013464399036 20.03555170982284
-8.787172815981565 3.66220263811861 19.987534952667687
-8.766039226012778 3.658802480829154 19.940238448381514
-8.740697255751094 3.6519924374712636 19.884700199374496
-8.714661094697044 3.64656092810168 19.82821345848258
-8.676436732152942 3.632645322796118 19.746417135233617
-8.655129309890562 3.618350250800103 19.701916560597336
-8.619641977997299 3.600796366008524 19.62646087703349
-8.589380176256826 3.577897235439103 19.562499815479836
-8.568339587032279 3.561522574223897 19.51660057519463
-8.537806447868748 3.528530176951186 19.451112882116963
-8.506054257318054 3.4900516413361755 19.38485650506049
-8.484277775745344 3.4579751843609454 19.341814028540878
-8.463273701992668 3.425694714375454 19.30134560703223
-8.432530863377064 3.372380702424538 19.250732883351077
-8.39550551625416 3.3209386604675384 19.189520496866965
-8.375404797544338 3.297107196703112 19.16008128123681
-8.348997167692545 3.2657986930371887 19.12140592249055
-8.306657706967718 3.25271107408847 19.055084820781314
-8.236822564997249 3.2278704247715115 18.963212744119776
-8.190371551432607 3.2157630961759827 18.91007391447525
-8.151570884435477 3.2110158822373576 18.868391363091856
-8.092424791309407 3.196445835580687 18.813995571560653
-8.05112121882334 3.1832583476935916 18.780608658989888
-8.000935917089521 3.1677835234977803 18.74216186120795
-7.950698237005872 3.1533916120034933 18.70555477788559
-7.8938802533894865 3.14794722656271 18.663537598581108
-7.8411029476072525 3.1367102661062294 18.628054551556456
-7.766872046665162 3.1204109076887097 18.582769574338823
-7.70039530043217 3.0863102537939557 18.546474152819734
-7.595022106275238 3.0387121021955696 18.49230278461721
-7.4968061094996195 3.02618813930947 18.43740476587767
-7.424007297057791 3.0059583107500396 18.402037814846366
-7.35463813854799 2.981374799790501 18.37059193589362
-7.279325298638838 2.9493427299210344 18.33976309383163
-7.221461485410476 2.929775306216915 18.31621042797429
-7.1432347448811235 2.904351421610081 18.286071323735303
-7.0734449602622504 2.888197378360947 18.25937618234297
-7.001586328480908 2.8701737994550163 18.232256204003612
-6.950109899789476 2.854887871410126 18.213558161444904
-6.86999575350365 2.831429245698227 18.184247580773246
-6.809799863199689 2.8106716196826786 18.165996019383556
-6.752179868103957 2.789012736404694 18.15004478852192
-6.656913221863556 2.7700770321819874 18.125889992328364
-6.578751872977109 2.76804433492857 18.107274291128597
-6.520186342242553 2.7861927803287267 18.091603892883704
-6.4543349467374265 2.7987491618364313 18.08028403031169
-6.3919386175383215 2.8023319156213153 18.075456670608865
-6.3145914192935075 2.8009482087668243 18.07691590865386
-6.2399335869208095 2.8078204222766106 18.080980873943165
-6.174957309010794 2.8196860601206284 18.086287555723096
-6.113192955904331 2.82378725558422 18.096920341220944
-6.041240022072968 2.8017302363227206 18.121654392393847
-5.981785529855543 2.789086498690934 18.1419198019912
-5.892553641869264 2.789321378860919 18.16834921362006
-5.835024837896337 2.7546136627202484 18.19951421137462
-5.782090160563849 2.7497207080568034 18.21986851995189
-5.720506764326529 2.7493216275494827 18.243206654380714
-5.667269425319275 2.743219005502694 18.266257104190803
-5.620766545224909 2.723000339944824 18.29227795022871
-5.57575376792602 2.709213483840852 18.316381999714938
-5.485398023118671 2.6819604525386076 18.366700954128657
-5.432862670972531 2.6667181907155033 18.397293515070047
-5.369682436849377 2.642522996005596 18.437494993636456
-5.291806467809198 2.605719219817458 18.492274124188683
-5.188044894383016 2.559751662322882 18.568101946677647
-5.132431653075428 2.522877443277255 18.61694911942591
-5.09959447755995 2.499513001156026 18.64761528933754
-5.065317362096952 2.4758180298225003 18.67982256662467
-5.021608198009857 2.4485511252611056 18.721595382515495
-4.967150720391102 2.4279237334978214 18.770319290242785
-4.9223860706666445 2.408513566514464 18.814005980774738
-4.8758421192503665 2.3813697611476847 18.865933810894774
-4.843740287824779 2.361238128830615 18.90377783311698
-4.8063999789323395 2.339424694151548 18.950040061219457
-4.772187400207244 2.3186369791566976 18.994161341050493
-4.743851553367067 2.289484277386599 19.040771684595466
-4.718151693325172 2.267322394536359 19.08132708262301
-4.691778899096871 2.242690058351961 19.125748290125507
-4.661932786162118 2.1987889505916307 19.18816723217266
-4.642854694580006 2.1703871739144756 19.230477890580293
-4.613849674913946 2.123823619251919 19.29994531646121
-4.586438284025893 2.101634001039672 19.351660965566694
-4.559964249788789 2.080012513592993 19.404785703546104
-4.51959911440247 2.0529337417319695 19.483527515773154
-4.465522014181312 2.031321986473314 19.583998935102493
-4.435383120360388 2.0123032294357195 19.648084929327688
-4.403684891389191 1.9991768672787213 19.710549816265353
-4.3832301659043855 1.9788688674585442 19.766010765043127
-4.359152857654016 1.956829201701847 19.828176863988322
-4.333621368893299 1.9406936324251103 19.890134066864817
-4.307353105623456 1.928946186334602 19.951470959712797
-4.288069666848546 1.9179059909053982 19.997425015553826
-4.255910402426532 1.891716173217562 20.090432570756835
-4.227371874910225 1.8750518054795633 20.1673095006823
-4.207557856770707 1.8632784765969153 20.22159344454461
-4.186114889692468 1.8419753567335688 20.293852753253645
-4.166952762554101 1.824887333559076 20.357034980561764
-4.148627892527269 1.812131633881845 20.41549079202823
-4.127057254996473 1.7966138997290975 20.48669359409336
-4.111830110752065 1.7788486151701328 20.549897370287425
-4.094139547999371 1.7488408284871568 20.63660404492006
-4.079835663917434 1.7147143426756373 20.71711577916859
-4.063726147816626 1.6731093190046276 20.813192428842047
-4.053958931585614 1.6467306386935834 20.87199360896634
-4.0422473278480995 1.6164433951226995 20.940448774793254
-4.025976609696651 1.5982965834903393 21.016708783052643
-4.011511964185966 1.5965188092611762 21.076968710726348
-3.999956789840313 1.5932150844093613 21.129861712899274
-3.9793631663506783 1.5652271379492666 21.244012249354707
-3.9679836284578913 1.5502471023982445 21.30739045975195
-3.9578788999241272 1.5445507425227414 21.365611851008687
-3.9460359407672776 1.5454700565584318 21.441915120409917
-3.9346033438483055 1.556347348120098 21.528086990760297
-3.928498870205794 1.5660873509401878 21.5940989805142
-3.921181258422516 1.5626396642514557 21.67142248466991
-3.9154837770145576 1.5577272359533405 21.737671436999154
-3.910413986935543 1.5516826557130161 21.816778409525092
-3.908237445651592 1.5558544032892752 21.88759936151407
-3.9067367090704206 1.560086985444942 21.97564428651749
-3.9050647254305435 1.5545650827535786 22.04174013073724
-3.9041064515129342 1.5482752020482675 22.125295923332455
-3.9041185579106266 1.5415716649383298 22.225142508781076
-3.906522602223008 1.5373716338388077 22.31376222027037
-3.9085704535288732 1.5290489285435973 22.379795066019273
-3.910752405537645 1.52387738210492 22.43719545779767
-3.9205479244138957 1.5241411479898883 22.526248289702547
-3.9300126747968855 1.5241475492733276 22.59867070020661
-3.937533500145487 1.5257167879628872 22.648227207453875
-3.9630160938335903 1.5516373881653858 22.729256945579642
-3.982167721101195 1.5694771589272583 22.78786156313917
-4.002135747483907 1.5862951919489678 22.84508747682071
-4.023881037748798 1.6045772508255516 22.901270157586023
-4.066305873196248 1.636965769046845 23.005156617357848
-4.078891380352762 1.6311079943842925 23.055567548294295
-4.091645730093715 1.6272522212465488 23.112738811826915
-4.13136344694015 1.6557385545620582 23.188218264501852
-4.157329168287229 1.6793018836391467 23.23232320724102
-4.207699260840148 1.7010331874021631 23.338513527535312
-4.245891708331165 1.729205013347488 23.391722650567655
-4.276022334725235 1.7606905117046046 23.423368926688156
-4.309277279638473 1.789955019504052 23.45842047833417
-4.355717826572564 1.8444551808301013 23.50075472366994
-4.424820733620264 1.9049147312814105 23.567334964538876
-4.481213378139932 1.9451265602209953 23.620777342428934
-4.538494770418286 1.9791912147511914 23.668976094755525
-4.575611224972157 2.0389833856797637 23.694520927350275
-4.6057978150527745 2.083848375349982 23.712798851346925
-4.635128477999329 2.1246507488370163 23.731518715302496
-4.665250240030312 2.165468851867325 23.75062023408928
-4.692818415664347 2.2140420074145633 23.765945126167686
-4.720486721970962 2.2623162836849966 23.7814510388485
-4.749744203535552 2.303058481612232 23.79978260495163
-4.790417327195729 2.3548361829817814 23.82558382638661
-4.855673370169878 2.4285194101494616 23.867424372205047
-4.925423698362575 2.501421449620838 23.911042644776263
-4.976593748991967 2.571029506845118 23.9397314968575
-5.018231771022038 2.6447797941615674 23.961679591961676
-5.041498019743493 2.689858639985003 23.97381034196702
-5.073979430679625 2.753332414776531 23.990612494194906
-5.109280638503448 2.822523796983713 24.008578572467943
-5.138742466458816 2.8706338720810374 24.025148673334314
-5.176334691846825 2.9506930491812957 24.04531361944164
-5.211852975533377 3.0278331376798624 24.06484926627226
-5.2415490629540376 3.069193196929624 24.079893759355183
-5.280012941871911 3.1223703614367713 24.09993246025491
-5.318619078102863 3.17719271744292 24.11983455627749
-5.347136557533584 3.219395824088827 24.133330432469922
-5.394139551873508 3.2887931889401685 24.155603982023308
-5.4385841517132905 3.3490606308803894 24.1741888603661
-5.5015300536863965 3.430722269770528 24.202597090528688
-5.55317445241167 3.4912223778737514 24.223628226626897
-5.60311769702401 3.5601494235917626 24.241441284684466
-5.63850917145979 3.617487485164413 24.253492929148486
-5.672355859137554 3.678059594576781 24.263906685272858
-5.711417632225422 3.7439344489436035 24.274439108836262
-5.741014717873012 3.796132304263635 24.281615569789746
-5.7856773239001305 3.8636646085585458 24.29191448870717
-5.829509138720798 3.910930320039874 24.30211752819932
-5.883721476105588 3.9678178985687786 24.31368358015562
-5.943921179224718 4.030623970875607 24.324325504512913
-6.018793880443636 4.084149463365001 24.336849584714457
-6.072855198297068 4.121295066531994 24.344845576845014
-6.132740500211195 4.1516969423677095 24.35372837422818
-6.1974527998693425 4.186132170496091 24.360159292532895
-6.24344161696287 4.221540954130758 24.362572561069545
-6.292893683121997 4.25952528255984 24.364093693620692
-6.348430846579359 4.3105158066835 24.36083406864977
-6.398427281636536 4.345368782090256 24.359717767941888
-6.45253733802667 4.385803547903584 24.35642347926882
-6.506520278105927 4.426923460993563 24.351844920083295
-6.56017700412785 4.471144527134282 24.344535002552142
-6.632743778589204 4.524043395338004 24.334864135752373
-6.704113195995234 4.569709450240364 24.32553782838195
-6.761363778136644 4.628044334468174 24.307843250134454
-6.823436973724835 4.674445380464893 24.293093221804323
-6.8721329359785575 4.698102074133105 24.28615849422042
-6.935465973545744 4.733613586873519 24.272987867252635
-6.996213144010863 4.765291223596504 24.260758168283633
-7.062565417441233 4.793692711082633 24.24802228568563
-7.131101126991172 4.8265166596573215 24.231427528623335
-7.190971831491112 4.8591135515175665 24.21357374797203
-7.249311871462348 4.873449295637577 24.20442338298781
-7.326964793438876 4.898165889058855 24.187063708860435
-7.429075478653786 4.924356161576481 24.164729398957025
-7.490270451712966 4.955376681698859 24.13810990088109
-7.535237805911761 4.968879923773826 24.123721830855196
-7.61524062604536 4.982371305197855 24.10228995700836
-7.6772576367916905 4.99076523794211 24.084484737756743
-7.744514340216002 5.000076670454873 24.065947300224973
-7.805969099965134 5.009968858120828 24.03777338575177
-7.903915707659506 5.021457633040443 23.9943410636855
-7.9705666738369985 5.0274881785422245 23.962652712961575
-8.060010636127853 5.031885293661584 23.91746112760009
-8.17114880179563 5.032910921265808 23.858309857503002
-8.242154118125706 5.031619162499496 23.81857525592258
-8.283887616128 5.0307556846750145 23.792820684393938
-8.311702845136253 5.029753622501227 23.77593532604945
-8.352347608816771 5.0282895484793775 23.751264013644
-8.408309051213813 5.024810211420393 23.71677926018701
-8.444071298932924 5.021228479399747 23.694093331682257
-8.508919328506636 5.014733942630402 23.652958756948475
-8.595357151773456 5.006682573663558 23.59273196267792
-8.684792911749645 4.978788977744377 23.5447057671095
-8.737037972489642 4.966037009695137 23.50865124434276
-8.840169172548928 4.9429796065976 23.432679723991303
-8.917040441104678 4.913130658269195 23.381025536821504
-8.964140251633804 4.8962232610930405 23.343301674702612
-9.030037670040011 4.875929905973434 23.28534761834912
