342
18.185607625564423 -0.9818708526362314 16.858313561262783
18.18628185950212 -0.907503893332892 16.866292435562606
18.189897009270705 -0.8465476674811006 16.868658108046933
18.198425070593977 -0.7420720238488883 16.867248100088283
18.202229158947475 -0.6700723530961088 16.864900415479504
18.204798525494045 -0.60981036258417 16.86294682742217
18.206915899665617 -0.5470824825316549 16.860143111346044
18.208283040322794 -0.48163430421837883 16.857533801251854
18.209356534999362 -0.41197907696974734 16.853309797924087
18.210554362227505 -0.3243136458469793 16.849067028504304
18.211304831206043 -0.26060111609266623 16.84442816904187
18.212564572190114 -0.19735896948090725 16.840355498934382
18.21251070191832 -0.11058055908743447 16.834936777244486
18.208229313609447 -0.02473332979173093 16.830131018859028
18.20460372507624 0.04524450360021537 16.826114373917488
18.2029804729751 0.0975637983436537 16.822833046045247
18.200925477541134 0.1501232701842199 16.819649195527678
18.194890572580057 0.2940673862505385 16.81001083110312
18.185691003255045 0.4052102898469496 16.804369845962093
18.177384937714578 0.4599471563336792 16.801304583437958
18.170036371231863 0.5187175827926229 16.798428249117755
18.165218316467648 0.5954007622386783 16.792655198035845
18.166305035249323 0.6703949955926476 16.789241326418672
18.164553259542906 0.7488636427484769 16.78422765773541
18.166802325943678 0.8154325735748789 16.780911262345345
18.168084565267886 0.8663662781247237 16.77747531281112
18.163238098507197 0.9720879169455909 16.77291115421431
18.167613977368315 1.0614979092057537 16.769153863666897
18.171333995779182 1.0988988046330441 16.768117584599626
18.17514640199475 1.137239077618782 16.767056970971215
18.179848846370707 1.1917378456816616 16.76610217731274
18.18339253321293 1.245527243347601 16.765644357632127
18.186577776549274 1.3006120928774376 16.765806497649937
18.189023571331912 1.3859455604097752 16.766657186933582
18.193810734481904 1.4787559242726351 16.767506109022207
18.18382745930941 1.5281718463787055 16.766500592596504
18.175156232075924 1.6301018233603586 16.765534897432367
18.180891098551555 1.685526947746266 16.76639018015671
18.183803249933476 1.7911330245119441 16.770707107874742
18.19098715676502 1.8788698961359922 16.783323007069125
18.190253515367463 1.9561027748627 16.805081922179337
18.205168848282867 2.009596676313457 16.832071707676402
18.230832888388882 2.0501657825724413 16.86063375246807
18.272868013197982 2.112905321236088 16.91522074892257
18.29902797029869 2.183712654227934 16.98395131210299
18.312101635747354 2.2235007929252175 17.031249475516812
18.302980594849558 2.2763093426885286 17.084037970241514
18.289357770283612 2.322733207628885 17.128413998864666
18.272094609429423 2.370815778124161 17.174551518924375
18.259220330356218 2.416550008739547 17.22433105709066
18.249758316131338 2.457137422521832 17.270607086153078
18.24163927410299 2.5000427789217525 17.322772860034096
18.22750903259815 2.563842256461422 17.39941233649194
18.22087918277066 2.6107202156699865 17.460775493339103
18.21269796128373 2.65285983696511 17.51337832410662
18.20337396708839 2.7107765238076675 17.586620168362114
18.20390618592261 2.7417917754627474 17.633947283761877
18.206232024033593 2.7846425637571866 17.703560635288575
18.208967493210835 2.819972464234721 17.76337342789331
18.21137315723744 2.857965104482016 17.82207860966445
18.209052589846504 2.8911994661173166 17.860387421426246
18.209756692275803 2.935720165295163 17.914968036453384
18.215347733991294 2.9749643536983275 17.971501670945333
18.212638460409988 3.01781915853359 18.014710187881164
18.208559763188596 3.0575441555172826 18.04980683209122
18.208233145629283 3.111457283739199 18.108368909860776
18.212256483455533 3.1521059942582657 18.16146032256118
18.215643660311972 3.1851000336663926 18.205885241980056
18.218359893989444 3.236837230267553 18.27484145314017
18.21716698591131 3.276162973280816 18.322750458480513
18.2150003927515 3.3171940090712138 18.37542247290498
18.209244838192554 3.384719136419899 18.46943839635489
18.20321988100533 3.4148266966694463 18.50621894144605
18.174851367424786 3.4991681187965993 18.593921346554396
18.15188844046283 3.555885152110558 18.665379575191462
18.126919251300016 3.6041042425614602 18.71563664632316
18.100387651973424 3.64857280622351 18.778674910757722
18.080495685408206 3.6754403123763346 18.833761549450333
18.05162382431681 3.7049285174844675 18.915538820448713
18.031744497180725 3.7192296654961474 18.98276517630965
18.02047882043742 3.720317769429304 19.044965086628835
18.000194613337328 3.7372513749054175 19.09343822352083
17.977034399896073 3.754714876747416 19.14592571079442
17.954730415559908 3.764177890749888 19.214012406782956
17.933413418584106 3.7720733100243553 19.27981454776266
17.911535083741477 3.7778825917231726 19.348106005720926
17.885495271170157 3.7893681310595397 19.411272301886736
17.850280284712294 3.8094455318597307 19.47914004878548
17.82316482186073 3.8216417189434893 19.532607808617772
17.790683533893386 3.836773571731367 19.59390175236951
17.74595472980026 3.8608107265743543 19.663485049119103
17.71551700334133 3.8771202469095982 19.708109613178326
17.678177014452288 3.895909753451523 19.7605341902601
17.617661168009807 3.931562087387004 19.829229317293837
17.55423255167111 3.966738357249123 19.8982524408872
17.507508079950885 3.9909599276022654 19.947937745413714
17.454625813341774 4.017356430345882 20.000646789683117
17.413237819808312 4.033200213494605 20.046504318525173
17.370807545782096 4.048864757658774 20.091508564909162
17.3150799453112 4.0731671959989875 20.13942580347409
17.262008609757622 4.096634496868257 20.18107738332281
17.176797991314103 4.132551208602052 20.24140639888296
17.09165862370903 4.1476305277259815 20.31910664601891
17.0304822951812 4.155293882282822 20.371959680957215
16.986709372804945 4.151774277801001 20.41385836397371
16.903124132724347 4.1458470957354345 20.485145006382243
16.826576444091966 4.1237559094598435 20.55819187395405
16.773336510104805 4.111600015044452 20.600413369863638
16.70860835179135 4.101519357376554 20.644735779450425
16.641885197339057 4.105744626635899 20.674487279257278
16.58241793056274 4.109418369191303 20.699548167038667
16.531856714393534 4.103046514463529 20.727337316659494
16.43927086888536 4.073163762625916 20.78871867678895
16.37463516540972 4.046550924865332 20.832602989812322
16.30145678661369 4.027955850209924 20.87205731000514
16.23113273396889 4.006495043437094 20.91024198951697
16.145956298842012 3.9827774021000106 20.952996704906845
16.063707331103085 3.9521256038488737 20.996601596457484
16.01506528828861 3.9309528772452493 21.02289478543673
15.95652241378609 3.9060052862039756 21.05341929135176
15.89913249966552 3.879832833832185 21.08305493037255
15.84381648833439 3.851248133010504 21.111900758955336
15.784990842807883 3.830932459411674 21.137261564332178
15.722888995572488 3.8171653782081334 21.159875276809114
15.66368922976553 3.800939302777687 21.18189780314067
15.599059608159752 3.7819451597755336 21.206116618362213
15.517415424960168 3.7647681891696267 21.233175008983096
15.426211869978427 3.7240050926020354 21.270341674776034
15.37484077151554 3.6861301156255095 21.293713799156617
15.331023548106101 3.6571339652280415 21.31062594657086
15.28696282631203 3.6291736365282166 21.324687478405142
15.24429703009982 3.6008501786402585 21.33737297899285
15.184659956854963 3.5665761452020766 21.350315332217388
15.105844619939505 3.5334736050699362 21.36179740911355
15.058953211216627 3.512963517617801 21.36716299570137
15.011474236908143 3.4938029061132845 21.37102602196032
14.942839773298237 3.462740790825504 21.375282697200088
14.848895099181698 3.410581783634303 21.37828221284255
14.758621487259525 3.365588032101569 21.37876748643465
14.692690941729172 3.338672218893242 21.377952958567846
14.64604347258378 3.3201108958038104 21.376959377806063
14.575330857325511 3.2829182414207656 21.375619994373942
14.516260034304509 3.2459051921024216 21.37479785998391
14.450395508101028 3.157331670775007 21.36861022758146
14.399254406491753 3.0831867541215203 21.36476482900144
14.353665454037651 3.023216840833446 21.36120182352412
14.322468930541781 2.982025666098652 21.354215373452845
14.284285383923011 2.9367172342635683 21.337917515914413
14.237602785085867 2.897510134522321 21.321019099877226
14.182560558211366 2.8158410583013245 21.312298622659704
14.138267538697988 2.73767244508249 21.310220337410303
14.09142651144414 2.6417349358576834 21.306749625314154
14.070596759253222 2.5897825232339207 21.30474805291663
14.049165062274954 2.5324407533453828 21.302248057364608
14.028098994639908 2.4714651163845787 21.29926759301497
14.00730175850984 2.4068334902345905 21.295486094499765
13.984872553929181 2.3261759221022125 21.291806231842866
13.963889833315264 2.2592212526497217 21.284898523980168
13.959516484583798 2.1836094148323664 21.29899586205481
13.945745465104661 2.0870849313764284 21.30892983095647
13.942084926394683 2.013227797953866 21.329198733946445
13.938294352709418 1.9649453870561129 21.344797800648365
13.930845569315457 1.9078247192681952 21.35594640886796
13.918284924325937 1.8485984201809125 21.354778907380346
13.903850907012993 1.754681317438224 21.374521382723483
13.892283280470583 1.6825694025349194 21.38794724921663
13.877173552376858 1.599786083147163 21.41153417417851
13.860090923455331 1.5147432664074698 21.43042124980962
13.844121652942206 1.430103688679733 21.439326104997033
13.826837060696043 1.333340138407656 21.437240863263447
13.817606567261151 1.2833861853016197 21.428241388839446
13.802226271598869 1.204655226459589 21.413625716412398
13.785846757517747 1.129514601228464 21.4083253478885
13.773652440035256 1.076090099968 21.412409341944826
13.75625455785295 0.9981187811879499 21.431998941976993
13.742805754605268 0.9335178171017502 21.451570177077986
13.733585051802535 0.8752683638219942 21.47130163406981
13.723961812843244 0.8141076223637713 21.489966867397882
13.715438639712369 0.7562100579872342 21.51008743496617
13.708007547230803 0.6885164917789874 21.51609163198163
13.702163999336443 0.6222673635263194 21.522685396890402
13.69759939233179 0.5520397546512801 21.533063067221267
13.695188086290218 0.49807014333804234 21.539380732416944
13.691283811215945 0.43396168726621487 21.53991428693002
13.688167996655636 0.36026351852525473 21.541029678031144
13.684313052386607 0.23195756623073582 21.524782004511234
13.683056859307964 0.12124083776045969 21.52159127996265
13.683445447687424 0.028056121282590718 21.520846151864216
13.684368093263089 -0.050662673741108 21.52325393697784
13.682198806910085 -0.13902565757386998 21.525129777060936
13.680462841379649 -0.2233663504808232 21.528556584413447
13.678238842988032 -0.30959635433208876 21.53303994302604
13.676613219910779 -0.39732648615462707 21.538528700770797
13.677170185050842 -0.48631692783874647 21.54513791064977
13.679390883139162 -0.5671567119371079 21.551364852740335
13.6828785282156 -0.6450305984904652 21.557326324218508
13.68728012639152 -0.7271608398365428 21.56391702621402
13.690510563609138 -0.8043508110428828 21.571577973232163
13.691371715188417 -0.9004429297330299 21.577871053873874
13.687981210802517 -0.9678724047710456 21.58999506855307
13.682169485283403 -1.0352423409765537 21.603527578325174
13.674035175653467 -1.097467108072866 21.619211767090576
13.668722296920418 -1.155475877828615 21.63752227135403
13.6633866970254 -1.2132626667336968 21.653780865730436
13.657137630259575 -1.2698758488468893 21.669478921584208
13.657083929767307 -1.327986632875487 21.685460162620892
13.657811955554166 -1.3890848887409752 21.702273121428384
13.663092059801038 -1.4529534640816777 21.72084790771037
13.667324972636278 -1.5183124701413966 21.743308200688194
13.669628560223593 -1.5829904216382544 21.768521282309386
13.671158053935368 -1.6472010657580236 21.79560366972026
13.67269625335731 -1.710771038574969 21.823864324908307
13.675343536051935 -1.7766901182720927 21.853619978656305
13.679603615025949 -1.8433479075799688 21.882132614616985
13.684718638223954 -1.906828040913897 21.908244483929636
13.692015771687837 -1.9833074208919441 21.931725215855927
13.693490976767883 -2.0397983627830953 21.941998196559265
13.698086307800901 -2.1129911417987364 21.956587126924514
13.697596470741612 -2.166139416640174 21.962735621130996
13.700963252381328 -2.218391872685303 21.973532088559672
13.704028717891282 -2.2960481711717113 21.98606945952087
13.697187348166603 -2.3703595953273107 21.98292659421897
13.686341311459016 -2.4343143087529855 21.972465651806257
13.675399621589932 -2.4866359508500278 21.960984954827687
13.65702703138293 -2.575009348902472 21.938594480018747
13.637327948142218 -2.639140776442333 21.913317167380498
13.624196862942608 -2.6870160357178943 21.895330546210015
13.612026241594629 -2.7347866504806024 21.879077063984322
13.605182923476269 -2.7852267669288624 21.871729034320868
13.59336466450255 -2.869297584653868 21.859074508241893
13.578688600962934 -2.9228954037475994 21.838255581449634
13.54584340083109 -3.0202328940564103 21.789012896142346
13.524176254771847 -3.0589230436419586 21.753706325102804
13.48568619239474 -3.090516809101726 21.6806871973733
13.45164581757658 -3.153593669275618 21.62400196010673
13.394617947924003 -3.1020634514267824 21.503295106126963
13.378826372346857 -3.08351841225669 21.412657223232653
13.366888536144563 -3.0420889056686375 21.357795363161497
13.353688561932868 -3.007142149314541 21.285375645959554
13.343372679685748 -2.977676319974919 21.209274751441516
13.314279624904529 -2.96431674092079 21.12915205817535
13.299649767838506 -2.923744914306237 21.044879565272957
13.29553295897401 -2.8886935067646657 20.995776237384327
13.286797513045489 -2.857246118434295 20.93397289543152
13.281195709688943 -2.8251230774642746 20.879085285983763
13.275407817358065 -2.8016369877500766 20.830315886780742
13.256100964344776 -2.7843757590675438 20.752948303380602
13.21935850297243 -2.7974388252832325 20.673521632796866
13.204253691984752 -2.785003105819701 20.593815325445398
13.18726441928549 -2.7799964119910214 20.517887379592572
13.16935809394401 -2.7664049537912847 20.392205459285133
13.17727166010247 -2.739671176982685 20.228136910089397
13.192005395882147 -2.7297552396301317 20.155683495252976
13.208639182050124 -2.727251975176303 20.096557311203693
13.251283546222647 -2.710626396522848 20.031839337495857
13.284954041590074 -2.7017997314832707 19.987081619637834
13.320064862048671 -2.697729662149235 19.94230655290236
13.374513797681523 -2.683730266810959 19.892101720372857
13.424273673059046 -2.680386398892156 19.84225542678497
13.520589328674049 -2.674890092467785 19.75939689218732
13.584803374948917 -2.674183739559429 19.707589037589212
13.664957700381052 -2.676655018283607 19.64271564683688
13.721100536452852 -2.680540410951468 19.59806781990419
13.762052853967937 -2.6832683666606014 19.56647910004854
13.803865903937398 -2.6848351219808873 19.53597629532983
13.847169229455458 -2.683646928436641 19.50818361130239
13.889732045692886 -2.683956444397805 19.47957008413347
13.932094794126865 -2.6844897548345905 19.451258085204717
14.005853935824936 -2.670865050663566 19.415506679378538
14.085739928502246 -2.6759075305883746 19.36144740249561
14.157950283240108 -2.6552760199540852 19.331659952299038
14.209216750836854 -2.63858796872848 19.31329748557875
14.265183884456288 -2.6205210946867776 19.29179499926117
14.349054896839169 -2.5907965818293013 19.258097327177293
14.402904307556513 -2.5764337535838786 19.227099191662354
14.465058428746463 -2.5507989280231653 19.200857774970032
14.539574152855726 -2.523430013766771 19.168175801463683
14.600839352255061 -2.5062744788808873 19.136352641035177
14.664333855711785 -2.4853238469506307 19.10838894369035
14.739283920201432 -2.4571326163515455 19.077482535131754
14.810690377702867 -2.4397103641671096 19.036856124553736
14.88137552611354 -2.418269045865334 19.00270025377995
14.950687381307711 -2.398071763462693 18.96949437969203
15.003713894321582 -2.38455662828847 18.94074860649872
15.04807009797095 -2.374323251854504 18.918094156869497
15.161004128428559 -2.3483166466219423 18.863956226503596
15.235491012891101 -2.3339716081863005 18.827216379586694
15.292215377911084 -2.32384147515541 18.798798179742743
15.350949997730714 -2.3144774430559067 18.768340924583764
15.431592304631065 -2.300830016682947 18.727668863127093
15.508165050331899 -2.287479833992469 18.689005497227473
15.585685057497948 -2.2770860723187116 18.64610666877764
15.649491687537793 -2.2686234840543635 18.610135353080505
15.713108996522115 -2.261882191909881 18.571356102485545
15.776409061481818 -2.256190478545598 18.53068717563376
15.818388398657893 -2.2531056989300646 18.50263502463311
15.872814477265178 -2.2483720447181463 18.46582292537938
15.936125803844151 -2.247748947236361 18.416785220637877
16.00410108812338 -2.2365555913670097 18.374340836110242
16.079823059984875 -2.2234358625764123 18.325613901842193
16.16528485682267 -2.1999941581692646 18.275729412515616
16.24470101487334 -2.178099342511315 18.225055066060417
16.303042614758773 -2.17208073094342 18.171644791284052
16.35725123354459 -2.157325799505851 18.128665579537444
16.40672648571326 -2.141045626388408 18.088435103537755
16.471220391641143 -2.1202794604669277 18.026726557498062
16.548283324907906 -2.0644480857547576 17.969554830650402
16.60775948661733 -2.005267850892503 17.92261900401644
16.649058177325735 -1.9612413072744797 17.88532809217012
16.708888706433502 -1.9031922767466785 17.79367481149344
16.73260596129722 -1.8805636030473705 17.74893173580602
16.75305861391379 -1.8600439991968558 17.708037695974504
16.773713696087153 -1.8324358036843076 17.6712914307218
16.79404785340806 -1.802192436992608 17.635523718376273
16.814729833117497 -1.763121027136181 17.606130451116424
16.83441825832394 -1.725771180332506 17.574733777941198
16.853716408116185 -1.6853970777632472 17.54501195901517
16.8738721583516 -1.6441001421902868 17.512489601633423
16.912803235528187 -1.5617617724335886 17.433229054363863
16.94356430973071 -1.5040089654156856 17.360421538046666
16.963647784313988 -1.4726030240200323 17.311997388211775
16.974783055916266 -1.4693652359196283 17.260069007781663
16.992576537813285 -1.4620710775034806 17.197902279462383
17.005956908876072 -1.4679158212403924 17.142040520809303
17.031987092283828 -1.4956515792811895 17.037759937914984
17.043048278177846 -1.515062890508023 16.99266336350467
17.067320912740104 -1.53303525126047 16.928298168944064
17.11485630654065 -1.5124030207735017 16.866184179194413
17.168705349078703 -1.4827546995442498 16.81725759797404
17.23537990136845 -1.4413605260097195 16.78056516686495
17.289557078643224 -1.4179043163446063 16.762033408849337
17.376969186061714 -1.3960421048325944 16.75153330402481
17.52157325099361 -1.3764796845164493 16.750835230950734
17.633651699280808 -1.3777657892205333 16.726184167391366
17.76146853016027 -1.3621627015541022 16.728351512438998
17.85059070452236 -1.3513795629644878 16.741636985671995
17.946025761474452 -1.318951934437379 16.770346923818828
18.024471305722233 -1.2887014229330258 16.78750677460478
18.11584002712589 -1.2264279238797327 16.808555141862975
18.17558304918913 -1.1423563883443764 16.825879795928724
18.181552886535012 -1.085462788804351 16.842166610387565
18.18532150094668 -1.0355792961848385 16.851460877013256
