283
-22.423233104024078 -15.344159581227817 -0.2783933233589737
-22.495176191358166 -15.352280010533654 -0.3020148482461318
-22.54672066064546 -15.358833849821838 -0.31728171097109126
-22.59763746093095 -15.364423786482249 -0.3321250103983173
-22.683537989788952 -15.380441681289561 -0.3528043079094445
-22.752564302497852 -15.386174107435092 -0.3718343282818939
-22.803495703860303 -15.394097977510548 -0.3831913614807778
-22.88454234320573 -15.407980153436558 -0.40044309486359175
-22.947906298809244 -15.417638698899854 -0.41268076975082746
-23.011638006078115 -15.41767098012642 -0.4297264187255383
-23.09665373867282 -15.433556419979212 -0.44385543785315296
-23.19531404136753 -15.463859983103262 -0.453777866571242
-23.2616461686534 -15.479676374112678 -0.4618339073554365
-23.310083268158888 -15.494852938055274 -0.4656372073881281
-23.35913236971538 -15.514208748037632 -0.46776355673806336
-23.408645368468108 -15.536199212466677 -0.46846779920755655
-23.48107055603096 -15.569259621983505 -0.4687156156436716
-23.55677717331561 -15.596579893052212 -0.4704755037612012
-23.626823620478508 -15.633645307165846 -0.46921393472060036
-23.70212905370413 -15.645109821647733 -0.4763429195189506
-23.773754545738548 -15.646204950113667 -0.4868692111613191
-23.859425903176408 -15.647270218914723 -0.498950695822038
-23.92927008897244 -15.649434561696129 -0.5068231381520443
-23.983070924192077 -15.651020856807978 -0.5125166552819609
-24.071321773822717 -15.658796595714062 -0.5185953020422369
-24.157727994369676 -15.68219316982282 -0.516994795191299
-24.256853647768448 -15.722314106030765 -0.5091173121384989
-24.39226057666725 -15.746788794920956 -0.505146123669376
-24.493970082764953 -15.762787358347499 -0.5002478436907145
-24.553795720046374 -15.771987712339385 -0.4957896863809479
-24.621086073425765 -15.782267412146641 -0.4895153919269193
-24.72097046576506 -15.7901493006794 -0.48018017538369406
-24.809417866244146 -15.804801832258104 -0.46466836713925463
-24.91058280005989 -15.79623178531305 -0.4571045106418401
-24.97577742693631 -15.800783113086485 -0.4457572092659996
-25.035145401658056 -15.815067914038075 -0.429721891588037
-25.11742021359124 -15.819870959089755 -0.41208691084984306
-25.197146723004263 -15.80742368498787 -0.400536951267461
-25.284205738100308 -15.799045341009442 -0.3822877880343176
-25.373886647546694 -15.783928150520989 -0.3650348013007916
-25.44448238635359 -15.766507199591153 -0.3512349905897292
-25.49841312614352 -15.749400232181184 -0.34200330512342614
-25.571012190935 -15.721627356218931 -0.3301947745161451
-25.626208395168035 -15.702459000698838 -0.31797749312650225
-25.69990728814233 -15.684494426645763 -0.29894502483611785
-25.785418058505144 -15.664771521768962 -0.27292757187672567
-25.88623090394413 -15.618801146744143 -0.2488581938313965
-25.944770648643946 -15.59110033675266 -0.2342354997735745
-26.00312286286496 -15.562297151573802 -0.21752810947016776
-26.075722309276465 -15.523888165523719 -0.19621050346922964
-26.16593137732194 -15.48940255567378 -0.16104605013351136
-26.209537137433024 -15.46500431146104 -0.14695711904755093
-26.261161683897317 -15.431173685671403 -0.13021025488871363
-26.31877961372257 -15.388440864500584 -0.11225603597969958
-26.37541267050117 -15.346597179495408 -0.09257775488920128
-26.443510376507984 -15.300299274915162 -0.06297867626414089
-26.49971961759014 -15.258377748948082 -0.03808306299120545
-26.541394354374066 -15.226710403508665 -0.017712643709654863
-26.594085726444266 -15.178737909513494 0.007396691142107947
-26.64025493821768 -15.138355979177202 0.031601710420832596
-26.692916814910976 -15.098203292422877 0.06371267081322163
-26.737660551168066 -15.061890379246858 0.09407574819395936
-26.777063028474007 -15.030880706148569 0.12041066390080157
-26.827759407973115 -14.995091090378178 0.15896075122369968
-26.866613794324877 -14.962654977774228 0.18931754101910148
-26.915165894559912 -14.925586887902362 0.22994924010292284
-26.957569325564364 -14.891863901429051 0.2681571089026775
-26.99706071114637 -14.859947013659653 0.30408097314411275
-27.02781016696065 -14.832714025620305 0.3344716942909818
-27.079214393896464 -14.783240688279331 0.38445522786977815
-27.117655733135315 -14.744666084998006 0.42515168137509374
-27.163308001760868 -14.699360875546002 0.4744663278226495
-27.195494033395438 -14.672886267612338 0.5131349616011507
-27.234422853084006 -14.641430025031632 0.5615987130194879
-27.26869319411702 -14.61413386827222 0.6056500812357699
-27.313158752162217 -14.586381136929173 0.6668221060417174
-27.346936805776725 -14.564860463969055 0.7150039230725662
-27.37696929247377 -14.523474351014649 0.7573432078869784
-27.403519070472 -14.485113296216113 0.7951392700920632
-27.44713021199416 -14.428465250544228 0.8615075789908113
-27.51168267524848 -14.381663273052105 0.9697476671260068
-27.545268469845464 -14.337687953797946 1.0275609820653715
-27.578839214561018 -14.316218620801685 1.0874156600004459
-27.608796691164674 -14.29493455478427 1.1458759468022248
-27.636488156977247 -14.270564610963845 1.20065923978607
-27.668910164811994 -14.241153238928732 1.265676159830175
-27.69006959276219 -14.219510749099744 1.3094435529461563
-27.717336680257908 -14.191678695273769 1.3671722855048425
-27.750068887401046 -14.140380319075575 1.4378371168076791
-27.787628154209678 -14.083271585238059 1.520328779496125
-27.832708456261873 -14.031074904722384 1.6288277447275603
-27.862417014314605 -13.988433013493609 1.701367026363644
-27.87780290736133 -13.95041416394934 1.7386878830905506
-27.89410055742946 -13.917641674153725 1.7777484549374707
-27.921009089240346 -13.875343610769654 1.850901193617752
-27.934700748387698 -13.841766437787658 1.886215702906572
-27.948108409775873 -13.807878348115224 1.9216556986877307
-27.962233883037616 -13.772147581369968 1.9597533134096627
-27.98079783548698 -13.7279917294623 2.008612714777688
-27.99584055621199 -13.708442967439272 2.057730541360094
-28.015682958518994 -13.672352096582422 2.114741223541674
-28.042850903919803 -13.637745983460654 2.2063861492888046
-28.072181702104324 -13.627838501785128 2.315845600643896
-28.099131873435095 -13.602158265450996 2.423708562149263
-28.11331016399895 -13.585964234889161 2.4877930811789577
-28.12773952298781 -13.567648802552096 2.5583588361688516
-28.137210701819026 -13.546165077848471 2.608869562115896
-28.14923667881882 -13.51276458505319 2.6794784082481096
-28.163359271819036 -13.482160258207976 2.7806014538145947
-28.168908807732148 -13.466682551724556 2.8436587992677897
-28.177561545272244 -13.42432173791132 2.9297930704688526
-28.18395169830516 -13.388403026383102 3.0194496729602602
-28.18742809300341 -13.368567830177223 3.0879599024912285
-28.189739077250206 -13.348408934309827 3.158493762277956
-28.191258046389663 -13.33493076536751 3.219993017924444
-28.19099791469533 -13.32517901556777 3.292177799322751
-28.190034804119342 -13.308581098226199 3.3732596250018476
-28.18721678991701 -13.296961112925363 3.449179932704823
-28.18292586480008 -13.277966481297724 3.524169324169304
-28.177987163565085 -13.250032835794475 3.5855339138301625
-28.171159331392907 -13.218852007060303 3.6494382385672215
-28.164226143603816 -13.20678819261811 3.703728037682801
-28.148742928435663 -13.197307142148219 3.802560356950385
-28.13887077480328 -13.181448438850893 3.8529525704679495
-28.12377516968701 -13.15954439274866 3.924158467121506
-28.09929498689757 -13.123213547307458 4.0118431236160355
-28.067744336425957 -13.089142816293379 4.107838028805771
-28.039065053015158 -13.057374096603787 4.176670113959475
-28.013721953630327 -13.032438828550443 4.231322684487452
-27.986008470585343 -13.009930151367307 4.28567314364026
-27.95483703073328 -12.989171431169996 4.342634671691428
-27.923499493765465 -12.961205641694637 4.388112736182123
-27.8882805222836 -12.93469472178652 4.436208573095788
-27.84829284995064 -12.908562969575463 4.485275208657454
-27.783777561311105 -12.868190024121574 4.554161324776211
-27.730413398852797 -12.83647281124803 4.602075802625485
-27.687415600317998 -12.812434939244543 4.637831897322263
-27.639148856102963 -12.790206082670942 4.675497783915756
-27.599146595006975 -12.77337250055324 4.7055103520500445
-27.558337723838758 -12.756057504539793 4.735359917554562
-27.513967175191965 -12.73806379580488 4.765485344092731
-27.443298914983554 -12.71251477037536 4.811325933472558
-27.374068024169304 -12.690074263519481 4.8546878902833654
-27.321198639463315 -12.671548926621238 4.88401622757454
-27.251988809065004 -12.649385147463786 4.9223037681522515
-27.201910930741878 -12.636458601009583 4.950101768712258
-27.13446991423371 -12.62451745042964 4.988510810313151
-27.033763017451445 -12.609870750369751 5.0450009684443575
-26.972294770553134 -12.60233469872611 5.079648190545834
-26.900677767892525 -12.58619831597942 5.110949264865132
-26.821533008854516 -12.57182465283876 5.1470592572177924
-26.73817093751762 -12.56168680686493 5.186542072650633
-26.67359466424345 -12.56096265967766 5.22009162555381
-26.614688494200873 -12.561474456383618 5.250308162619289
-26.535991010859398 -12.555428078689232 5.283859643720316
-26.452339554527878 -12.5313254020867 5.309519241780809
-26.389730231906903 -12.520723251695248 5.330714522870153
-26.30933809424542 -12.51520439498766 5.360415381016208
-26.25968639485508 -12.51459052288148 5.379707805426867
-26.19666799412703 -12.514661869536912 5.4045358046850644
-26.148948927114752 -12.512370492990009 5.420621259920761
-26.060357003541448 -12.501447198968073 5.444636408813942
-25.977321329900803 -12.493247588928458 5.463806908190685
-25.9138318452881 -12.486285971945268 5.477469450386057
-25.844591311388005 -12.474178168440353 5.485284725515945
-25.77526205035767 -12.460558025153116 5.490035326489052
-25.705726508659996 -12.444833656079012 5.489569801580721
-25.629867087952974 -12.426612400411582 5.486245581561338
-25.495744929483994 -12.40248169196741 5.476689529652305
-25.42177842221937 -12.39972749568555 5.4768115566413975
-25.308940386386805 -12.414753888348958 5.484354969320767
-25.220115864374648 -12.431932084447688 5.489965531854686
-25.15793161652726 -12.439336150129186 5.488390007644025
-25.078376928194523 -12.439166255212008 5.477264613771869
-25.01179495367799 -12.44694654646067 5.472429253834717
-24.957579702356465 -12.451683636051317 5.466079887361555
-24.850714188784355 -12.465156191755444 5.4517480886283085
-24.772419382049225 -12.46933704565447 5.434931674615489
-24.659297028250876 -12.479869089150409 5.409559899182148
-24.56395742796075 -12.499556317853127 5.392940630016707
-24.480708444119845 -12.517603113876227 5.374761539074822
-24.38655822781185 -12.55790612030101 5.367713288581115
-24.323472360037986 -12.585757681779569 5.360742862957528
-24.262426357822335 -12.611684170306901 5.351886107648729
-24.186517740853155 -12.635191548322211 5.332960479238355
-24.13851413326998 -12.650328912595914 5.319041029832731
-24.054607033039527 -12.669787327248688 5.2873826869768585
-23.999536730529403 -12.693712138618398 5.270916148007808
-23.94804826496714 -12.721844770150323 5.256950693255945
-23.861447051676233 -12.75807765488171 5.224390809437301
-23.76293968977458 -12.825437030062716 5.195501463042551
-23.672312665748315 -12.863959952346352 5.149705282995074
-23.61355201158598 -12.898496188060513 5.122688014439855
-23.570097530943393 -12.925157130535283 5.101741792912343
-23.522377369761028 -12.95250706603667 5.0759536989311265
-23.47003613907124 -12.984772965515976 5.046007278422037
-23.42309649484391 -13.01473030216517 5.018307319658502
-23.366903585338964 -13.044383116604937 4.982677974563815
-23.31635861976868 -13.069770968338172 4.9456621376060035
-23.266907638498015 -13.093798262872177 4.9072233421151275
-23.20835064563501 -13.121955152665137 4.85956344885971
-23.165990707317814 -13.139838787103002 4.821646434081897
-23.10752911594918 -13.166471460380016 4.769144168684997
-23.04851249924201 -13.213045965114578 4.717383891424479
-22.98526363110395 -13.262315374516781 4.662994855257104
-22.934173973601737 -13.295540658242743 4.608267510996434
-22.89591022527179 -13.322440233656618 4.56425393197629
-22.859180134196045 -13.350744308391437 4.519305405210151
-22.827371768689723 -13.37878152903614 4.478196241637329
-22.79411834901612 -13.411274071305257 4.43022972362961
-22.762997757004214 -13.440716902349195 4.384620025792827
-22.73321917736061 -13.467372047468547 4.336058801879287
-22.70182637543746 -13.49793557231732 4.279723304257293
-22.668218973954353 -13.531410480176675 4.217895911403602
-22.640128575550907 -13.562113711452625 4.161790313237397
-22.6166856652675 -13.588515177716378 4.1147871398086036
-22.59070683513439 -13.630554001894751 4.061980684972189
-22.56989880591716 -13.66439490448148 4.01989154615962
-22.534247321502782 -13.761306646383588 3.9475187897431816
-22.50733614350338 -13.80649080242587 3.8884734185552814
-22.482859980803497 -13.845422487405827 3.8330511432168763
-22.464329214877676 -13.873258261980006 3.791029920421002
-22.429897708782317 -13.914826330106873 3.7135344661451666
-22.406545832825973 -13.944505310499647 3.6574526196816923
-22.380865452775847 -13.975277053200834 3.601165431291803
-22.360984119420156 -13.998544556199537 3.557028951634105
-22.332543346928663 -14.028687236586737 3.4933469589307706
-22.298368764372793 -14.05827529981864 3.418164123686198
-22.265653698575537 -14.109493163917538 3.3491563840250884
-22.242057611467395 -14.145282675045202 3.299618871767473
-22.22055022956477 -14.171457868583467 3.253134039563865
-22.191781183190656 -14.203945668156202 3.1906879058282707
-22.16670000871075 -14.233475554878734 3.1392365605389805
-22.14067224417055 -14.269721354927047 3.079269446435705
-22.11934336623902 -14.292909401097024 3.032594816225222
-22.092459543454865 -14.312453994259506 2.970923011642346
-22.06240979743337 -14.359991015248877 2.9054510809632497
-22.034105978904044 -14.402756942258133 2.8413431616572487
-22.003280276132713 -14.443944868426211 2.76996116361882
-21.96287842295409 -14.490464617853114 2.6761083796461214
-21.92751556784919 -14.541135696593042 2.591540982904626
-21.89886936938101 -14.588668435373453 2.5218032974066547
-21.875544633991627 -14.625499980867186 2.4627465146083933
-21.84684726212977 -14.664344068296888 2.3886974012446713
-21.819825776629056 -14.701737983887138 2.317038262675082
-21.791836439163074 -14.73791924357818 2.239551026297564
-21.76733550856664 -14.786913996285016 2.1663497118495707
-21.747531950845573 -14.834068645202493 2.101755554595899
-21.71987978045373 -14.856553629614865 2.0176037263659086
-21.703441501087475 -14.876450353053098 1.9619010276753754
-21.689092937995515 -14.89471581378049 1.9101755808099479
-21.670836415251674 -14.911508150380381 1.8395304019941494
-21.653674039754723 -14.959014466699355 1.7531703733457147
-21.6368032443853 -14.975996627611213 1.669094035802038
-21.627042296846625 -15.009764899466632 1.5935239631663505
-21.614434823244217 -15.033765384716379 1.494094790879382
-21.610395350906952 -15.060588422367623 1.4289445202912638
-21.60786216406007 -15.090096109387762 1.351516738521866
-21.608682427279156 -15.12804812615897 1.2487635707488622
-21.615419580139978 -15.169517129089265 1.1340598790249334
-21.620755346347863 -15.18614878867724 1.050388592894464
-21.631670126394678 -15.204422848158899 0.9389653970697518
-21.63950831358274 -15.213300149286585 0.8761728503243731
-21.64759069666931 -15.219313414686958 0.8150195653488961
-21.654395737135015 -15.222194489053216 0.7637394652660978
-21.666916787265976 -15.225326868171994 0.6930755626127914
-21.678729424705853 -15.229473846928961 0.6355884491706378
-21.69070125680844 -15.234204032438242 0.5830461997900631
-21.730074235175127 -15.27470578385567 0.4796835592258235
-21.766385563707658 -15.289969909732989 0.366265161003299
-21.78218594550585 -15.27575376293694 0.2919346803172518
-21.79825556554986 -15.264724311079956 0.230615560996422
-21.822411452227698 -15.257462540616377 0.16097942514737795
-21.850142549900163 -15.255784758917475 0.10147694807650076
-21.889717298805866 -15.26050703993263 0.03804685909466432
-21.940006540064502 -15.26057156246858 -0.026963441340442706
-21.985199027740485 -15.264248137765506 -0.072331165083388
-22.03583398258394 -15.27295204236976 -0.10962831299924414
-22.103068082692786 -15.289299887735233 -0.14862350768738342
-22.151680663338123 -15.305468678607667 -0.1699939107650783
-22.201993468611573 -15.319045239273638 -0.19102408812707328
-22.26117265505999 -15.331212685034185 -0.2142899093918187
-22.355488193086448 -15.33517644589892 -0.255401667950907
