411
9.141153822922892 -11.343963373830352 -5.91939853418248
9.147999558818375 -11.372273476215788 -5.980557355524068
9.151700925226889 -11.40188150992793 -6.029735000608262
9.154475247989813 -11.437109818168972 -6.08605964918267
9.150961513168268 -11.462103726908758 -6.17028484848438
9.144161127395313 -11.503567813737135 -6.268723786688026
9.13487315716364 -11.528613840625434 -6.347168721207179
9.109648280038837 -11.532494525943333 -6.483523280038705
9.092084444553299 -11.534969231669134 -6.564573797299014
9.077299957357122 -11.541393437340151 -6.630457549570239
9.063477852735213 -11.52234003731204 -6.678052316318169
9.049114943532809 -11.502773950362222 -6.726703478412018
9.031013059847849 -11.50662390307976 -6.794039023721881
9.011678513933434 -11.520485164072458 -6.864834581439106
8.981700689927282 -11.536083152721776 -6.968843535664469
8.957868610000912 -11.531911435604222 -7.034624070719561
8.946269511670852 -11.556367342363261 -7.083013428550251
8.926225972369279 -11.55876326513824 -7.1407793171405025
8.905751978012482 -11.561555850089395 -7.209797709210741
8.870144118653489 -11.531264523639086 -7.295305942865923
8.838358303392459 -11.52764249687699 -7.381794679910851
8.820259656018129 -11.524970278610704 -7.42937811214261
8.792725345457459 -11.52037885295452 -7.501873878738403
8.751244964701879 -11.504103254007353 -7.605519112781698
8.726397500104445 -11.499344773186847 -7.668613378644025
8.707221415222106 -11.498013835635374 -7.7163976187840575
8.679951025343197 -11.495388582579514 -7.783203006100532
8.643036895960885 -11.495890716021881 -7.875992026878709
8.608982651871223 -11.47877546967307 -7.955002694064908
8.588332804878975 -11.46756932197976 -8.00233068344527
8.550288786330553 -11.44899089353224 -8.089452260346263
8.529226859039804 -11.446814177869117 -8.14023803345554
8.506808790224191 -11.44180950872265 -8.193395075053264
8.481835324249019 -11.420148270811659 -8.251089993408991
8.454409184728561 -11.393809861421154 -8.314356578494246
8.422289260415722 -11.38472904017228 -8.391999403705162
8.401526098699351 -11.399684760300078 -8.448290590963072
8.376809202600146 -11.413588304399088 -8.5133776080518
8.35340778884494 -11.42287947148799 -8.574049058544047
8.330078833332296 -11.44357100795646 -8.63626623556179
8.307651583850086 -11.461855858691436 -8.696443971008296
8.280606731818636 -11.47274093031784 -8.764690541188676
8.2505078845609 -11.483957498650758 -8.841333427847756
8.231234112432093 -11.481547430628494 -8.888280818654136
8.204221505784746 -11.475085918433948 -8.95315519097338
8.176952366362551 -11.471484089360711 -9.01662377368331
8.151297069833953 -11.480840711235293 -9.082100564969032
8.122352144805854 -11.490666131821092 -9.152701365972664
8.085626319856905 -11.491359840404892 -9.235662259174086
8.043110732345543 -11.522345971707958 -9.337951067462116
8.001560818908178 -11.53992910118601 -9.431990795651032
7.975465073946556 -11.536250003970359 -9.489118295136869
7.952957148081949 -11.527076235592238 -9.535921507701946
7.930537346474929 -11.520702852150299 -9.581333981605308
7.887349998965035 -11.521619473355525 -9.66951686249439
7.8543831815401175 -11.513219041159042 -9.737722894213942
7.816615451043867 -11.509658771620268 -9.809337000840745
7.790160525308275 -11.510208450612785 -9.862473682255233
7.756616211950875 -11.534290016094342 -9.928323754697841
7.727779008796097 -11.552187184265618 -9.980885119124858
7.700646538086348 -11.562255050949851 -10.028755479328193
7.652496710210147 -11.549159143742884 -10.112801372247212
7.61064480940997 -11.540169686123255 -10.180063344518446
7.558983126276295 -11.545547241791235 -10.264272840923674
7.531673279257941 -11.548758449259047 -10.30701001044271
7.4980670339635 -11.552181375789397 -10.357591390854921
7.438674782990254 -11.559169102096886 -10.443044521681008
7.374746951096292 -11.552293264966671 -10.529229467451424
7.336391945976591 -11.590506267322946 -10.57877170602918
7.293088451587168 -11.612201075251035 -10.630995251331782
7.2349951442936975 -11.634115473753559 -10.699630742701443
7.158220014377455 -11.660317689798374 -10.779912178030692
7.104308123536836 -11.675667620252554 -10.832579465218794
7.043179630299968 -11.687319731922646 -10.88877903085818
6.987434298425738 -11.695108389809267 -10.93560858809559
6.937183589838896 -11.702141957638611 -10.976762883949302
6.882135508950051 -11.707462666965641 -11.01781122285643
6.8054556841855485 -11.714354531725583 -11.073817733344336
6.735111666329737 -11.738822147799508 -11.119902269888973
6.677996530497178 -11.759866305106401 -11.155982194891168
6.627572129849762 -11.7775662787619 -11.186178651025235
6.50800480572655 -11.805254594513158 -11.256273613082138
6.410138001176327 -11.82751992616715 -11.308535514642836
6.340549327343687 -11.813170502198277 -11.34570220245269
6.2955252112605935 -11.806922048065971 -11.367956745364268
6.2194570369106925 -11.800994735661895 -11.40659144645057
6.148006381414819 -11.841234645036442 -11.435006922704572
6.055935941439155 -11.836028418020671 -11.475360560744523
5.941153721246777 -11.79465462420364 -11.526333503313191
5.874346396539118 -11.824323023794758 -11.548909022000366
5.7995583677563465 -11.79336141200036 -11.58204659959104
5.756038509062076 -11.759859549130864 -11.597086014800443
5.690594640191546 -11.712269265485679 -11.617297787691738
5.6189673897994865 -11.684947209161875 -11.642107395097959
5.573948633566089 -11.700832712439436 -11.65879050674949
5.515999303369012 -11.727252644423157 -11.679518523922074
5.439062096665033 -11.736535234354664 -11.705734108345123
5.367326466270275 -11.745923260112532 -11.72933123861745
5.301576036466883 -11.7307445011816 -11.748890145507838
5.235940975026019 -11.716301665494637 -11.76689925568643
5.144468163490548 -11.726451671438804 -11.794777891007227
5.044901778816579 -11.789810334322524 -11.830043218324073
4.99403416845036 -11.801759694216353 -11.845120398453998
4.93263085072235 -11.851177196494717 -11.870028046416673
4.851562840145906 -11.87936617476904 -11.895706703839494
4.779004893212582 -11.907346486881744 -11.919161377522215
4.706660316820915 -11.9059090297144 -11.9393658762424
4.648650703172302 -11.905441578776454 -11.955095916289501
4.592105826639269 -11.90572647379989 -11.9702025318998
4.524121579561596 -11.908093372060327 -11.988892351614059
4.422394719747494 -11.896979512731551 -12.013146828919734
4.341798435756475 -11.896247107602573 -12.034061338017906
4.233388663685432 -11.904757540505452 -12.06356087925531
4.126833597323905 -11.892336098435447 -12.086250416662121
4.036158483579916 -11.871392475655401 -12.101397609519923
3.9839172387010358 -11.858613543281416 -12.109201516639155
3.934338157320088 -11.84879831274299 -12.115861959736208
3.84692297174706 -11.846204636376443 -12.12722903765229
3.7624734939891127 -11.834185121326296 -12.132143914292131
3.7112626589740687 -11.847245298410597 -12.134064463287523
3.632921382855929 -11.842206578361736 -12.128567410222432
3.536354306527862 -11.840655556720455 -12.116586539801427
3.454559308020519 -11.81605899749674 -12.103106328789698
3.3224509780941314 -11.819309185272932 -12.073495452917209
3.2446679904871236 -11.827951803859541 -12.051937450920223
3.136741019030325 -11.847939503808691 -12.02322791496691
3.033711270584668 -11.874725384913145 -11.995031886822202
2.9517684988691757 -11.912403196435273 -11.969085630172772
2.8766862657965886 -11.937599290404558 -11.949253590380929
2.8187900696709463 -11.956146027807284 -11.933783389906202
2.7643403424618933 -11.974214189181394 -11.919280059758355
2.7082297974968066 -11.992617902067304 -11.904323769855049
2.6512399350723586 -12.014278350243245 -11.888159938034924
2.584400439857575 -12.03949642223381 -11.868696766978216
2.4757776117360963 -12.052336616189502 -11.845433486081303
2.3821767548916957 -12.090026005464377 -11.816747854948154
2.28696032212717 -12.113722925840344 -11.791400767515498
2.1802592328886408 -12.140399558039539 -11.761548543654646
2.081006045025682 -12.166972458144839 -11.731057683798062
2.0048366147411567 -12.186784185054757 -11.708705511164998
1.9149313037058688 -12.190044566728995 -11.68780405826471
1.8235013199796797 -12.191964037667338 -11.666167643898312
1.7432270273095323 -12.196226580803028 -11.64582584497101
1.6710082274710072 -12.201402736606607 -11.626084190214163
1.6008585940177475 -12.212393628967542 -11.604014014761493
1.5305741573119738 -12.221004765245958 -11.581972963423151
1.4589973601917774 -12.224318132425134 -11.561233311236256
1.4098399042102085 -12.219973702371258 -11.548878771367525
1.3600981524932407 -12.21318202259144 -11.53733780672472
1.2789105566318633 -12.208709726390538 -11.514715712857855
1.218800297804494 -12.222933802504757 -11.48914711310227
1.1564406084361087 -12.228824634754494 -11.465588889789084
1.093597234095236 -12.230063277233226 -11.442883572549565
1.009739018392599 -12.222486111829893 -11.415854932512483
0.9552879043040094 -12.22699925769495 -11.391284009698339
0.906362909696165 -12.22796407134967 -11.370115002787767
0.8477031949272604 -12.226174092993466 -11.345005102870052
0.7685531973654378 -12.227721698435593 -11.30551848639856
0.6883708946618761 -12.215405563197056 -11.269696839446366
0.6286859007198169 -12.22105133296915 -11.230580000943336
0.5867888784802027 -12.232195761133632 -11.198137956747667
0.5527650679288829 -12.256169356875121 -11.161888489831236
0.5151369588534471 -12.27312875292587 -11.128005175079233
0.4761438276948209 -12.338521295974758 -11.065177172543057
0.435774799569455 -12.376179633463492 -11.017572067446201
0.39818354753310703 -12.401553694374302 -10.976322126168505
0.32167855053786254 -12.429034430476793 -10.90190517703631
0.26692815223651567 -12.4376978388011 -10.848997858565419
0.21549815886954526 -12.447655909759924 -10.79330623588516
0.16676857763855546 -12.45012947413869 -10.740453446353426
0.12047919777621474 -12.45148190210641 -10.684417151193708
0.08393734730103675 -12.446971797712308 -10.63851345146607
0.04980091080212157 -12.448345456471367 -10.588473623457933
0.011630589731677299 -12.45738950280828 -10.525778765276653
-0.018039326955662016 -12.470885041962733 -10.46630282061538
-0.03712783276948439 -12.487581200084314 -10.422288124107869
-0.06949723203005242 -12.517265081126379 -10.3417564218435
-0.10034880958983705 -12.529958122508509 -10.26526485837122
-0.12129874955140751 -12.544507117990031 -10.205928330689831
-0.14326396645470196 -12.560121624987806 -10.138133990194309
-0.17479929314391351 -12.57705637908748 -10.034524414187564
-0.19710040738003576 -12.621749091034395 -9.93370058650168
-0.21477108095871356 -12.657241014048015 -9.850814879199485
-0.22589245757253518 -12.67516551258385 -9.798214524481127
-0.23521186822525242 -12.691186926432268 -9.748085119832579
-0.24511837540843584 -12.706022344051727 -9.695334208993296
-0.25845520297109004 -12.725618960373476 -9.621328561147951
-0.2751102259784324 -12.747385141371167 -9.523996242133672
-0.2839555742082218 -12.761404518986453 -9.45165517877798
-0.2906396703008858 -12.775312848500132 -9.378478942532432
-0.29644644623761374 -12.784727591745195 -9.326107213172177
-0.3048753410686389 -12.777314618399844 -9.258655001572421
-0.3096373679992579 -12.772679556729432 -9.217566846964383
-0.3148270321864788 -12.774946380079236 -9.150497746509082
-0.318128925480859 -12.785310909322936 -9.076822508771219
-0.31840741045218857 -12.806438242468932 -9.005879320455934
-0.3179400089430293 -12.826081901136744 -8.94228114577374
-0.3186166177542138 -12.830416004954648 -8.872576924745646
-0.3214694716919524 -12.826234898698187 -8.800201050952325
-0.3233815564551368 -12.82677533401623 -8.68986614157483
-0.323974660566426 -12.826090733213661 -8.555183629536828
-0.32322389540834817 -12.827617813666121 -8.493211581148643
-0.31945585816044253 -12.837199612750771 -8.42923853629496
-0.3168893902590486 -12.841977313990562 -8.355393271359418
-0.3149112571144712 -12.83891922589629 -8.239617521850926
-0.3126110788683183 -12.837431483452589 -8.164128196559593
-0.3105480775750793 -12.837686683521023 -8.113410734894376
-0.3119669862858345 -12.825266692250098 -8.047083130611181
-0.31449140548718835 -12.806510967127982 -7.964969704037967
-0.31336468268513706 -12.80113252744421 -7.894503578210562
-0.3122928455137093 -12.796775280750582 -7.844057355510259
-0.31328259913586476 -12.786864969620703 -7.793393392930922
-0.31442726118133524 -12.773685305787849 -7.724652718200215
-0.30943846187009716 -12.77036426327061 -7.625610489950248
-0.3128057999213285 -12.751426792010557 -7.546626564203595
-0.31921397886114744 -12.722534797759565 -7.462562143017788
-0.3081541940788852 -12.734214767314905 -7.3961184823148685
-0.31214675761980337 -12.72010064258702 -7.347706658311493
-0.2990926815141337 -12.729110294920849 -7.253901053586855
-0.2910240375773958 -12.731658024841762 -7.180050431874621
-0.28710973509098525 -12.725103446736329 -7.105752433472436
-0.2805388615714952 -12.723926780816123 -7.035745690403529
-0.2726228593598947 -12.724263968429153 -6.966480794302676
-0.26118072945893744 -12.729415647346682 -6.889652223384137
-0.2543450667331635 -12.730479249909607 -6.8328054524809865
-0.24554210187371228 -12.73004776334218 -6.766317634917883
-0.23475599112380885 -12.730394934710032 -6.6877165253530695
-0.22632850830337436 -12.722248378371807 -6.592538820981382
-0.2185650451220702 -12.720145848470894 -6.535614679090422
-0.2130145185342054 -12.71198256634758 -6.4703292775720875
-0.2088261415746444 -12.702621939567893 -6.406990715018036
-0.20799569294496467 -12.689060987546917 -6.35109396873057
-0.2057278904482598 -12.67542686024599 -6.285803984434322
-0.20047214600398466 -12.667650976131018 -6.229332646611736
-0.19372914890629755 -12.65661401770576 -6.1585000899151785
-0.18612727553158437 -12.648915135734796 -6.099152183365397
-0.17702067922979192 -12.645208640093335 -6.048333515972715
-0.16796369735520122 -12.639627591639782 -5.9937091205789335
-0.1568443866420559 -12.636310638229025 -5.943408773261228
-0.14674307408813347 -12.630916954355706 -5.892872217287893
-0.1376714724896122 -12.62356287779526 -5.843381100941997
-0.12325191549404457 -12.611586271698897 -5.7697578240697
-0.10733270737492684 -12.602050690242887 -5.701582859047441
-0.09006894068284432 -12.591865578299013 -5.634460481811543
-0.07281350728778224 -12.581265768008132 -5.56892141726588
-0.053225720398642595 -12.572114129399829 -5.505651490135584
-0.03325538404327344 -12.56285627965695 -5.443602026627614
-0.008778114050109975 -12.549464745816485 -5.372229158492367
0.008886171895888362 -12.542173387932305 -5.3254072579297365
0.030057402125706956 -12.530010343419688 -5.268309079593498
0.06470181666913244 -12.507421411116548 -5.176238244670214
0.09290731218055348 -12.475145160298197 -5.090115524097528
0.10869881179027785 -12.441105634797928 -5.024550099235853
0.1225244762512292 -12.413007608550522 -4.971152334274044
0.13737984827427252 -12.379150517766899 -4.910672787279352
0.1665110802238774 -12.340233732608878 -4.82456240749305
0.20012893285893196 -12.313508868881504 -4.7523030261861265
0.22307187149724084 -12.292809880026809 -4.699788887854423
0.2521995770092482 -12.2588694737604 -4.624804100759602
0.2753021948155927 -12.240833873706595 -4.5756727617103685
0.3119643940410548 -12.237501510287684 -4.523046205741817
0.35323928861335907 -12.206806689474329 -4.435097389306649
0.3840681211166179 -12.167798435205231 -4.350483794114252
0.4199293766950316 -12.141363175461267 -4.273106278873142
0.43935082375784495 -12.126921025869239 -4.229074674607386
0.46273504827981715 -12.101124890674285 -4.168242972362379
0.48407971561169094 -12.077075642163601 -4.112905747793568
0.5017953569430047 -12.04022369742784 -4.050153888475897
0.5224481753202281 -11.997026617814566 -3.978435652071057
0.5416897765433621 -11.977084200210879 -3.9332932898310906
0.5917634031124572 -11.945838675194247 -3.8382964406712814
0.6376693025212383 -11.929594224512384 -3.7667921470341614
0.6834376496357992 -11.903765455359682 -3.690444239258327
0.7235747823462726 -11.872396944661775 -3.6212299591134833
0.7591863525455442 -11.86285645970147 -3.574739056854207
0.8013324426262598 -11.853807632258093 -3.5211754697576234
0.8343889704047969 -11.800221419244913 -3.46148524577088
0.8876323816027909 -11.784235945617809 -3.4032699372577317
0.9352699091267194 -11.75259259562462 -3.348327291998239
0.9981432470675025 -11.711589180383493 -3.2826860865490035
1.0401670378815424 -11.687299167595624 -3.2441579027776104
1.114458989179352 -11.640999913081624 -3.1830551919891095
1.1598750598216572 -11.594011973430675 -3.147129129260338
1.2085181840390156 -11.544888677051292 -3.113343202976126
1.2554861447070798 -11.504215273042343 -3.0858244730957844
1.3506322575327705 -11.461989144228694 -3.0409708532593704
1.3988883784813975 -11.436016925272131 -3.0217960041212333
1.4715000071300188 -11.389745690583405 -2.99629981923768
1.540310580186099 -11.346143890562514 -2.9751135300530356
1.6040391149382147 -11.305096626965224 -2.9579131637122833
1.6633857253086215 -11.265527656615179 -2.9426021775915308
1.7161823331032329 -11.222756814469662 -2.9307104292485775
1.7724906329372216 -11.176765048696149 -2.9189260855805603
1.8306482130678212 -11.124907093327133 -2.9087630211800617
1.8702446198315155 -11.087097443329418 -2.901776638154157
1.9257819571950106 -11.052888458605576 -2.892960089787741
2.0109795927099703 -11.007756498592865 -2.8802544402425765
2.106337238522074 -10.960355065297847 -2.8673622883655456
2.167415155870499 -10.927181528775007 -2.860187983834124
2.234514856363338 -10.892078648755891 -2.8525019865074217
2.3104164772056395 -10.857090698910186 -2.845195464802215
2.3801681448840744 -10.825706792519595 -2.838807117785164
2.427246484757061 -10.807591638794444 -2.8350279820606223
2.4748157213867064 -10.78987051266092 -2.8309620323782987
2.522430776334511 -10.772308043529703 -2.8274802742439578
2.5856079730681945 -10.746667816156858 -2.821650346472719
2.64941911177632 -10.72113270645151 -2.818427121652366
2.694653556712998 -10.70303229520192 -2.816142062282961
2.7564119167714503 -10.670898558859523 -2.8127525294836166
2.802215469469383 -10.647091728341183 -2.810407538343326
2.8539727457928756 -10.627782131072768 -2.808004549061721
2.9376159936232744 -10.600971301829796 -2.804469577533122
3.000990309599809 -10.596010075280349 -2.8017078343182185
3.0680805908135005 -10.561351238586646 -2.8000012629383706
3.115211150468367 -10.532536079137525 -2.7974544150061886
3.1757393791315627 -10.529559008573697 -2.7968772621755535
3.2417079057130396 -10.523981131244422 -2.7958634001374225
3.3306055850889296 -10.501530818581537 -2.7947361366700356
3.4190279389552636 -10.489996727613253 -2.7938533400776926
3.4739398779520956 -10.483893084229164 -2.793798563404306
3.533621862125025 -10.477410663074282 -2.7941766796078644
3.5993133915691304 -10.47408311226115 -2.7947508842220605
3.6555815098598226 -10.472706415000188 -2.795703391871789
3.7546782067367594 -10.461690293148834 -2.7967677919480067
3.8510304702744733 -10.452615743704252 -2.7983296622986495
3.9302627179720204 -10.44047905041708 -2.7994059569339473
4.0108860851547705 -10.425384915540555 -2.8005915247162907
4.072831863304306 -10.408034602244756 -2.801213525752541
4.149025115578866 -10.39220160862072 -2.8027026276964433
4.225913303429732 -10.377273529995566 -2.80512223752309
4.302694097739871 -10.371915601644497 -2.808144615881835
4.436182882735162 -10.351517143061182 -2.8154284381268546
4.504134761884503 -10.34596574980307 -2.82056350013049
4.595522210227853 -10.350888169235107 -2.8292353113307316
4.6857871137885665 -10.365779457293142 -2.8392623149697958
4.803379127073555 -10.355440525520471 -2.8572122110985427
4.885425257775354 -10.351443992968008 -2.8719951970310795
4.971614778284924 -10.342576188966959 -2.8903345455345066
5.021882767214587 -10.330273012305193 -2.901098240201346
5.10162699445002 -10.285383423264507 -2.9252448594642635
5.1721486727375865 -10.262012547445723 -2.9468776668528536
5.245318446904821 -10.250751575682239 -2.9694561105376245
5.3524278362436135 -10.239902201697069 -3.005189139774143
5.45227398520588 -10.202187426054131 -3.044027692027541
5.5128645358521355 -10.175329722890066 -3.069058674561572
5.5684219286937395 -10.150286251904735 -3.0934891307186394
5.652864203262895 -10.117036394086854 -3.1327706703065106
5.744961626134883 -10.091997199837223 -3.17786163897389
5.808939265379578 -10.064611270296487 -3.2136766403399983
5.891151278049642 -10.0371306255055 -3.2607714646757113
5.970327524726877 -9.976103266256057 -3.320531572085799
6.04049124000079 -9.916483044482186 -3.3802811605658
6.121101239129385 -9.865946185740176 -3.4474008981574533
6.1667239536774625 -9.835336079472743 -3.4887152790334763
6.214082391241787 -9.822350843914249 -3.5228551697051183
6.291009422031045 -9.834310596731838 -3.568385013818361
6.381264472487242 -9.839688970905117 -3.625926314013946
6.441895270478248 -9.825619012234734 -3.672409841542355
6.490925601167018 -9.816312138198095 -3.7134402107074322
6.529156429294741 -9.809913045864734 -3.7457191391548
6.573526417407585 -9.804725489484465 -3.7810054854689303
6.646053072682655 -9.790330596969445 -3.8434353255721314
6.72995575679432 -9.782165091844533 -3.9129661510064
6.785744742043301 -9.809426480524957 -3.9380310055029613
6.846187014767721 -9.858419497784887 -3.947734802543268
6.943517251386251 -9.906873134410981 -3.9852002313963784
7.000916233265046 -9.912613969708298 -4.028771837847418
7.057948153659264 -9.950546829566807 -4.039571212824058
7.109123634275253 -9.995887487220829 -4.03951077343577
7.151909626628688 -10.026586665650255 -4.04497002976159
7.222060956135056 -10.058155104737919 -4.070834363633574
7.271874799776179 -10.07480947320445 -4.095551072811016
7.345177597795786 -10.10624002205319 -4.124185485010669
7.4090534553127485 -10.127734270873985 -4.153212614526617
7.4616723574754396 -10.163689359006794 -4.160009837436707
7.519411100528042 -10.19694927324466 -4.171549743119858
7.5736874412780795 -10.206765769565115 -4.2094069279498765
7.616517409478633 -10.221636654459624 -4.230868266916583
7.662351473205258 -10.235284007644461 -4.257705539640418
7.71192938305377 -10.246465843084565 -4.293904590232877
7.795865487770665 -10.268625533638183 -4.353296712617677
7.872373899491541 -10.305100637642871 -4.3878911752219185
7.94200683934075 -10.353695159471929 -4.390963862069471
8.010369368971302 -10.404489801046823 -4.390495500502949
8.087268316215702 -10.450199757642698 -4.4203617708645835
8.145663117647766 -10.484129284099897 -4.455174515700106
8.235952765210465 -10.556664285663576 -4.484132823743633
8.281516974662878 -10.587117646318063 -4.514954635117035
8.33689218972509 -10.62571854181089 -4.554031357829288
8.384573856004037 -10.640774209715534 -4.617152586290553
8.441888160694136 -10.674293145438948 -4.677333581278986
8.488029351618515 -10.692617013138507 -4.740649703436491
8.525993096889128 -10.700167018307138 -4.804568918036103
8.564474789496968 -10.720952974154795 -4.850624594292448
8.613177498517867 -10.752353582108674 -4.910060371853779
8.660965223761012 -10.786641137971255 -4.964705050090889
8.71335258864557 -10.831013305694455 -5.022761240883312
8.761440255926063 -10.869139360052674 -5.082270154313345
8.798705477356107 -10.902390067013203 -5.128473259834003
8.839567665342681 -10.94287029693791 -5.179476154954201
8.868701675096867 -10.97166388493676 -5.2192872603999305
8.904602475588916 -11.006841124272079 -5.273784485473945
8.956350070378027 -11.071968876783062 -5.346470101352926
8.995863155738286 -11.123881667484598 -5.410895960280454
9.019860563583704 -11.166349707031612 -5.450135833741973
9.040713356312994 -11.192120306902993 -5.488739685689828
9.06676890900943 -11.217953108411136 -5.5692560688706845
9.083577651827525 -11.240739895641065 -5.620634426039144
9.10773650268909 -11.28358562999538 -5.697656301037375
9.122250434856602 -11.305644418786674 -5.764807293443485
9.134926043636527 -11.338194449153857 -5.831374221419775
