405
-9.867559722501468 -22.264554019850053 3.3462612723402354
-9.91578310019085 -22.27085812703723 3.374409437268177
-9.979207090756393 -22.27715053879262 3.415377032769507
-10.038759187884377 -22.27618473461822 3.454001644995755
-10.08813200929692 -22.27420540108784 3.4891314806072207
-10.134051363483746 -22.271587546804007 3.5257153585759484
-10.186688073526277 -22.266408611062843 3.566796122355568
-10.243405888561647 -22.255850479432894 3.612347234411924
-10.289792488419202 -22.255814427802186 3.6622550269457856
-10.346170079980261 -22.251059730053136 3.7237993173783446
-10.405072138378674 -22.24136952518029 3.7877569424304616
-10.453187169178367 -22.23955113491961 3.8514552653605367
-10.48894295969691 -22.2369089220808 3.9015112222492934
-10.530121508441585 -22.23721679296643 3.9661636562310356
-10.558547345835112 -22.239302883443834 4.014728485377579
-10.59502091882625 -22.25514339704668 4.099080295566074
-10.617108844280722 -22.260087426699187 4.145493468496939
-10.639088499103632 -22.26457425668446 4.191083765082556
-10.662472483705763 -22.278336886526986 4.256611876134656
-10.690734302148794 -22.28783975358853 4.325952996509666
-10.731686255709533 -22.29038823285341 4.412778326670422
-10.753511375651147 -22.30200533830864 4.476237122550831
-10.77159265903364 -22.307327999624114 4.524248178733944
-10.790116006970202 -22.311787048280713 4.571662128167161
-10.807782917015135 -22.31681191562751 4.619489320483408
-10.829065179632813 -22.328880053079047 4.687260254516767
-10.844611528941904 -22.361402581169088 4.7770440536109815
-10.862875721111788 -22.379393743151233 4.851415537964623
-10.868450395714806 -22.419334809081043 4.930465276041642
-10.889065055247858 -22.422802411992798 4.9836625626544215
-10.91696190527897 -22.42087566213928 5.054108886592159
-10.958754104077858 -22.414648977563154 5.145923506142585
-10.991220115000019 -22.407772152572875 5.2166006230971576
-11.027552043013408 -22.39405419088542 5.287402508817678
-11.057616637168849 -22.38017131753832 5.340037508777254
-11.088116990386762 -22.364216868432415 5.391400263499591
-11.122480488250059 -22.34562182267355 5.449642614394256
-11.156090647525932 -22.32690107500259 5.510035265270127
-11.186414229909499 -22.312586868380073 5.571512624309431
-11.213854753033626 -22.30009930433866 5.632976676764692
-11.239592675577825 -22.28991105339226 5.6945824366082505
-11.26457563445637 -22.276475809469595 5.754288694969393
-11.290298668069902 -22.260505363182155 5.815771482095712
-11.328950084756858 -22.227451099313278 5.895606029925992
-11.361551355273875 -22.195149029345437 5.964730706651101
-11.395635848602911 -22.157852720078637 6.036657379448464
-11.42072668432218 -22.130785133994166 6.1006940296659735
-11.445945455432117 -22.102401892992802 6.170588381949202
-11.466534233772169 -22.07762735511382 6.226398243842628
-11.485720266165504 -22.05237395595045 6.282044034382935
-11.504670231408177 -22.02609539571955 6.3379106026238645
-11.527323940552751 -21.99059473873121 6.400844426216203
-11.563545405574136 -21.926675334591756 6.482645279334713
-11.574518462982475 -21.914972110464312 6.563106317258382
-11.591711357628665 -21.88483450118271 6.661223197054852
-11.6149288008091 -21.837459871226017 6.72661449674516
-11.627582073196198 -21.81537266460706 6.805328308774447
-11.638949391568765 -21.792233707942323 6.867381986869223
-11.647964085516612 -21.774307240888007 6.941351924638184
-11.654301452592321 -21.761331439052597 7.003249928439573
-11.666239671789487 -21.734146365815853 7.097782036974664
-11.677739610253596 -21.709208798229795 7.177927089844596
-11.688806246341752 -21.68672555228337 7.262780910716208
-11.698666623614233 -21.66700169330536 7.32490815664241
-11.706065359263633 -21.65327104653261 7.378544609089176
-11.71530477383703 -21.636238469602297 7.453839725994188
-11.738075210246251 -21.588190429850513 7.512809558150885
-11.749375717434035 -21.567980387127356 7.589727386756085
-11.775556901237874 -21.513956991231893 7.688770256375157
-11.793528902521363 -21.476021013029495 7.750101863389016
-11.808327444808324 -21.443594442030268 7.7909363487368815
-11.827885559276954 -21.400016541986574 7.8447509786760925
-11.848960541726267 -21.35368859270487 7.916219255102716
-11.860651461973141 -21.327505059191054 7.958960985596711
-11.879438287327009 -21.284315638654263 8.02393666398464
-11.89812281236604 -21.24051416729685 8.103572001405798
-11.909597430440702 -21.216592421666988 8.164717976460421
-11.930581852967268 -21.158250303204497 8.27204344489023
-11.942390855660502 -21.12549483701244 8.336134132484624
-11.952849374534203 -21.095419438140745 8.387381224139828
-11.964681169717316 -21.058775756298466 8.456657505204511
-11.971874021948196 -21.035579660057287 8.512898624923057
-11.97427298905303 -21.01673833522434 8.576239570574682
-11.978907311156235 -20.993315777973542 8.636425008737355
-11.978394224510605 -20.975074513081978 8.718427543754826
-11.976175412696168 -20.96581226531581 8.77218313836855
-11.974229552331689 -20.946371866240973 8.847030503794858
-11.971063663798088 -20.92980864919071 8.910735092836296
-11.963312693675281 -20.920793111645466 8.979453521665024
-11.952081350566413 -20.913014715417354 9.05263448589518
-11.943409159033976 -20.880563875174026 9.14754362885024
-11.929680293812876 -20.85578815767216 9.23600729257216
-11.91892761926194 -20.835422115532282 9.29698110949526
-11.907190922762435 -20.814743127936296 9.356615839895952
-11.892728478261287 -20.793996141439614 9.415591441207784
-11.876772305599733 -20.773121667917522 9.474048304903402
-11.859640655889493 -20.75162193099041 9.529083173045748
-11.841333554841206 -20.727793382525206 9.583518751560145
-11.818010487786996 -20.71074121690159 9.637070352781262
-11.793434945372528 -20.69260789153151 9.689472461524415
-11.767484669916847 -20.672978702431898 9.740947145358525
-11.739861667043709 -20.6522195305376 9.79307348198843
-11.709596668410434 -20.638427217589964 9.842878251835598
-11.676039926446862 -20.62520072214098 9.894360763907832
-11.641936409889006 -20.610407878567905 9.944771311513508
-11.607847803522521 -20.591602658686803 9.99405926010249
-11.57310562375034 -20.570862718213967 10.042657108514327
-11.526666374160996 -20.54014197429896 10.105021961401874
-11.498291379275337 -20.51932599001377 10.1423080160171
-11.459860626788043 -20.489876030569512 10.190879270938057
-11.405539512863502 -20.45203754532345 10.256608867623696
-11.368943434423894 -20.434355565188795 10.294703494947655
-11.324936264925459 -20.414699419331775 10.33965168612574
-11.281492628829355 -20.39155421440467 10.38399775607773
-11.233847002563898 -20.365962615816436 10.43054670599088
-11.194658740464103 -20.347559075624048 10.467479282707208
-11.134321305511804 -20.317135674572278 10.522078246479822
-11.096121464918266 -20.295922777210322 10.555525952611362
-11.057484841199923 -20.275981706075136 10.588983594354925
-10.997539537139915 -20.2461742312126 10.638413587248358
-10.946631865285958 -20.221741685504263 10.679076899411818
-10.850339425234978 -20.173449822058338 10.752527534465916
-10.793435346751966 -20.13055980690957 10.794694066809797
-10.717434752909838 -20.09431920535421 10.84793634176932
-10.640388563336778 -20.065599758424895 10.899135497098971
-10.587241017278842 -20.03465024026506 10.933876326150543
-10.533459273026526 -20.00131326550964 10.967966542994121
-10.481187723842698 -19.963077387241007 10.999999871114488
-10.435909617643581 -19.928581832781745 11.027361785355003
-10.375866894237443 -19.884153422066973 11.062461804104341
-10.322526547467202 -19.8449215812313 11.092493707299523
-10.267939573795715 -19.80533394377086 11.122399964359627
-10.221435529215317 -19.77179378973552 11.14701646003393
-10.158057415437849 -19.727101138840176 11.179496842683324
-10.10421734041827 -19.690653028633406 11.206408250293919
-9.997961382580314 -19.62269208459154 11.257475812952311
-9.921193407682647 -19.5952584941123 11.293797082466561
-9.87536391441651 -19.579889251669712 11.314994901844647
-9.815206539117089 -19.55545310930431 11.341303801321908
-9.750062693340212 -19.52835751899212 11.36991630107853
-9.686515430171937 -19.487622778179045 11.394206009611084
-9.598804434116882 -19.431918606172495 11.426786890528291
-9.521632477199596 -19.395754100667844 11.455117255210142
-9.443795045452493 -19.358167157897746 11.48331971925756
-9.39078686491251 -19.32657026954103 11.501050847150722
-9.331132191478012 -19.287295892915147 11.520182117532336
-9.26944702424727 -19.246776170258844 11.539334237228179
-9.216086322401292 -19.214905116508852 11.5566322786577
-9.130354536552044 -19.16813106370205 11.581760331946537
-9.06911624084768 -19.132769771801016 11.599515656794221
-9.011607268894291 -19.101717964636222 11.615843449583272
-8.940065612047576 -19.070187335453532 11.636470478008611
-8.887956417597895 -19.04839059866366 11.651262085079335
-8.821306184849973 -19.029357607731264 11.671428245587055
-8.772299684949886 -19.016789726182957 11.685097435454738
-8.695446814703537 -18.99308705765634 11.70632318610345
-8.629557694181965 -18.978096175531 11.724821817881459
-8.561429034955829 -18.96135673436028 11.74332065493854
-8.48384063177662 -18.940383547990297 11.763618233059981
-8.403786025508914 -18.917583407587422 11.783795225697595
-8.322647319334546 -18.897203311555963 11.803974754917235
-8.272916861487921 -18.886182461407007 11.816057927222408
-8.2224447076985 -18.877060618642997 11.828368417819181
-8.171528971886527 -18.86699595614536 11.841045256848119
-8.121267897787881 -18.856887737224042 11.852895209537094
-8.069941716049488 -18.84833743274874 11.86501425134542
-8.016550129164827 -18.842770644601188 11.877925877197164
-7.964271802566128 -18.835755482414363 11.890046208279504
-7.909043326477241 -18.83316721504491 11.903232680540492
-7.835981138426191 -18.822995807732 11.919871000243747
-7.727519468008482 -18.809902983335675 11.943132502536692
-7.658512919579381 -18.786993180962234 11.954532840758816
-7.611527108789887 -18.77060551641135 11.961878325719363
-7.537055041763842 -18.750208247204803 11.973454089518818
-7.493590868055551 -18.714508908964916 11.975794690084658
-7.4297709904696285 -18.696841635819936 11.985779693177122
-7.350218813013446 -18.65923352491906 11.993052878620867
-7.280123511714552 -18.618381141729166 11.996695502804961
-7.207739811702235 -18.577584527711743 11.999887470461896
-7.153225032210492 -18.549099174784118 12.001771272798443
-7.102252258926916 -18.50893673400474 11.999416290156674
-7.046287605400692 -18.471100815440014 11.997689243017795
-7.005112877153134 -18.425254240964946 11.989898090829932
-6.924968787560693 -18.36809088352748 11.9825011671705
-6.876561279384499 -18.32462559675845 11.972299476740055
-6.808482176690984 -18.257423426534146 11.954051526586928
-6.755032164800997 -18.18504863114299 11.929144028472084
-6.705958768732454 -18.1311131458028 11.907941173448418
-6.6557387128809085 -18.080543635131463 11.88574989365976
-6.621091974992804 -18.0482175080139 11.869521924893105
-6.590029323245701 -18.003940348952398 11.846832594980544
-6.561937187403138 -17.93107003111114 11.809043740215056
-6.5466809575738205 -17.88888976969467 11.785715245142026
-6.515911305038222 -17.842641940287322 11.756335663525011
-6.480029010738808 -17.789440888488663 11.719754739256622
-6.448846635266693 -17.741213533984144 11.684153643309859
-6.418808513571496 -17.693236324037837 11.646547081816085
-6.3867112307728435 -17.653681890351766 11.611232178595042
-6.341387772924809 -17.620437529503818 11.573811774978719
-6.295535900277129 -17.59231149936805 11.536883296112777
-6.240304486922411 -17.5585154139087 11.489337217262552
-6.157523994936361 -17.510386040403993 11.413497454280117
-6.113059644776391 -17.48105813283979 11.368625480778757
-6.067459749863494 -17.451341781650157 11.319351088072258
-6.017095264064976 -17.41798362397852 11.262623567915782
-5.963133658480596 -17.37536423237738 11.19373957711004
-5.937593079362393 -17.34195675186161 11.146737062959893
-5.905782374706102 -17.31364257459002 11.101835936548111
-5.864766442580296 -17.280898893764274 11.045445141211472
-5.819834952140693 -17.2458824368004 10.984849573415024
-5.784383174465257 -17.226343416762127 10.942872963108261
-5.748509840460247 -17.18983504146733 10.885010830195728
-5.7241210031361645 -17.16021360493609 10.841079482028281
-5.695552994622328 -17.11695412717161 10.781785103490321
-5.668866803952468 -17.078708773171527 10.728467056809588
-5.649729528265964 -17.048338016457876 10.687732591323623
-5.608938932992657 -16.97512867581257 10.591470170851398
-5.575842399119151 -16.93310949298693 10.528161993303893
-5.524047154105371 -16.871375656084698 10.431532504718493
-5.481437739651137 -16.820294012817016 10.349495600706707
-5.450572709528404 -16.7916174506911 10.297549455454948
-5.409021853550933 -16.755577644095226 10.229312581932616
-5.369518483191448 -16.726085594415338 10.168019776772368
-5.322525751116568 -16.68836038177148 10.091606956999552
-5.278630620079945 -16.666632063195816 10.032836129756173
-5.249899763415059 -16.652293086748656 9.993722359544321
-5.208918832232567 -16.624755000591172 9.929802258937219
-5.177857223233645 -16.597042091913885 9.872800624153612
-5.153732279058395 -16.575248435358283 9.827543221851158
-5.1309712147770865 -16.554863717027096 9.784527500583433
-5.108868588875617 -16.535152266373068 9.742566631312954
-5.085322783572665 -16.514586953712545 9.699147726121605
-5.054345096284458 -16.4901537044018 9.642119164659222
-5.020680465282285 -16.45276385410379 9.56759497083906
-5.003139275869493 -16.422732108549962 9.517191473705608
-4.975757787132959 -16.389884759487096 9.452795444602547
-4.941450983296327 -16.363720051297417 9.387813790511787
-4.898133685497814 -16.337676362465515 9.311344483191785
-4.8506723290294795 -16.311724703659976 9.228464428357219
-4.815972881582655 -16.302268187097063 9.17702453745796
-4.783965177281371 -16.29817395660468 9.133507754977273
-4.737322679605149 -16.293333908374294 9.069178905300301
-4.6685453861590345 -16.301226328792936 8.985861321908096
-4.632945148166146 -16.309610822159627 8.944630829444987
-4.569279504186313 -16.329520618241403 8.87071725915088
-4.534805825183562 -16.339402954698727 8.825287828398759
-4.488452772928901 -16.35808408083733 8.7650777801958
-4.427184710457698 -16.396119451226504 8.685937285988935
-4.3843988787958805 -16.428225739387607 8.62763602673994
-4.3472750747401525 -16.46910258365842 8.58852068632753
-4.283409256209498 -16.561748138264086 8.544164163244194
-4.242059035114905 -16.62284509334654 8.50490733938738
-4.207082553019265 -16.677794431761797 8.465528666772437
-4.179548083776187 -16.72642304750866 8.430053093226693
-4.153724286952868 -16.775522336156172 8.394804171262578
-4.136794061420349 -16.811617756429143 8.364457507632624
-4.115146391858981 -16.86545129240691 8.302196740344149
-4.100907571775553 -16.922854140808262 8.218165593576884
-4.091183994079905 -16.962425382950876 8.173973078186618
-4.083717349092052 -17.003668857796548 8.129115442744991
-4.076946909003115 -17.04742455064737 8.084180299185604
-4.069868022979272 -17.094851769128596 8.040131622186912
-4.064737363748949 -17.14126457231841 7.993261273709809
-4.060745601350239 -17.188378322827123 7.9453418843686805
-4.05415782678556 -17.240401644931474 7.897314055554872
-4.047032896551662 -17.29315776684335 7.84813354563474
-4.044052042979891 -17.342886110694682 7.787950129243654
-4.044587393088107 -17.39232925207282 7.712032724402482
-4.038195096216291 -17.45212711401964 7.639039564740255
-4.037484088137325 -17.479283393716038 7.595010468658501
-4.032232422359381 -17.535213545431958 7.507216384798828
-4.032233623229891 -17.563634137463147 7.45228635147142
-4.0287548249196545 -17.594433693863955 7.401548281006933
-4.021967006439284 -17.63873791619042 7.333764227514607
-4.0260270888564795 -17.663565579111136 7.273773853556332
-4.013026773262902 -17.70643699161809 7.222212142598051
-4.01295884696034 -17.732455051797587 7.170807852878314
-4.009748228734735 -17.765156142889417 7.111641909588573
-4.005558382186826 -17.800408600613558 7.052579190519122
-3.999700541643379 -17.83602300538312 6.994999740442578
-3.9896601433939063 -17.883787105014832 6.93263425833009
-3.9740661942055775 -17.930575422966967 6.887777205427687
-3.9590333930404986 -17.978432444707657 6.838427472941921
-3.950040591546334 -18.02953533683366 6.763033074566368
-3.9395195094690107 -18.070349925849882 6.712453252381762
-3.92827656274894 -18.112829204944752 6.662456321116853
-3.9222482463586763 -18.168962426806694 6.568588743097154
-3.923549707088015 -18.20080164656399 6.50387488064639
-3.9251918323744084 -18.233213416767278 6.439097535906454
-3.9358729927849394 -18.26091578009129 6.361383729176202
-3.9417774188387815 -18.279096167551863 6.314087140065485
-3.9475035641158245 -18.299033682542152 6.266150275254365
-3.9513986343819036 -18.32969883485066 6.206118774718855
-3.960326037387392 -18.36786567189384 6.124753638010034
-3.9755504465450846 -18.41601412779731 6.022320656927403
-3.9769322021750044 -18.457329000053605 5.960130139956197
-3.9805438500396937 -18.496455548369187 5.901170798683648
-3.9873225406917028 -18.540683240573323 5.833509073256018
-3.9859461871996578 -18.597919166188515 5.767947287987383
-3.983694996162474 -18.655936192549177 5.7076284570060345
-3.9770521964967367 -18.72604588110895 5.647193262949013
-3.9732678964045833 -18.82289726209848 5.5658572845384136
-3.9692090692679782 -18.901122616125527 5.5110728300440375
-3.9657496090537157 -18.960676433429654 5.475034217860287
-3.9641817592408364 -19.006897804007266 5.448752202242637
-3.9671752215322966 -19.07105693823042 5.413573760922292
-3.9703479649266837 -19.13749285930821 5.381256103716651
-3.9777259139671264 -19.214111048160078 5.347631304249475
-3.9800544716245243 -19.27776085945979 5.32765048678727
-3.978742995119048 -19.349909170768832 5.313563475232538
-4.001309064948409 -19.410112120067133 5.283238104311989
-4.019596548488436 -19.475896425038123 5.257052230791234
-4.046941084473382 -19.55088426198349 5.2260333165747
-4.067600936198811 -19.598329915261864 5.205895579991618
-4.086405512586322 -19.66142462781281 5.189261183014311
-4.100011350491163 -19.736722671464257 5.179473406607162
-4.108853880501566 -19.79172789379168 5.175204880272885
-4.122888324540972 -19.866546577689675 5.170037627883879
-4.148848362572047 -19.94290551890468 5.156831360793303
-4.190119654540028 -20.014853299533144 5.13247440557541
-4.214162886550375 -20.058105343157777 5.119520026148528
-4.247690073280354 -20.133073580225595 5.105605621597141
-4.2905422436146745 -20.207340758755375 5.086175500420713
-4.364587086784302 -20.285561192164565 5.043619230785833
-4.409146820598877 -20.333176554450986 5.019334559688054
-4.463690539553759 -20.39909522007759 4.991437712030188
-4.540467590169647 -20.459512112765815 4.946286801030211
-4.599063961564613 -20.51258632083468 4.914065750032235
-4.6964764784634125 -20.592594532433978 4.859126001995609
-4.745990291568135 -20.636880866391763 4.83224543850498
-4.81507098858845 -20.678594235955856 4.793410779883999
-4.857526003281705 -20.70667457963183 4.773902682006642
-4.9298072655807905 -20.750232935827718 4.744930816206797
-4.98227114521558 -20.77377554609908 4.725405903425946
-5.053477117116036 -20.801363098735955 4.699750578381506
-5.133468514677285 -20.830243315241276 4.6746696973633926
-5.19220769989233 -20.853033625618934 4.66025001472858
-5.254173739891622 -20.874960818177975 4.646294829701634
-5.310021662998284 -20.88653856023202 4.629455747503527
-5.379521473761568 -20.899184635939683 4.610171183901209
-5.444050849692217 -20.910858934482974 4.592030238421705
-5.507528555549871 -20.925814425847882 4.577343709503992
-5.582419826301895 -20.943818228883416 4.559397070686634
-5.641679742021927 -20.9582900106775 4.544811438010754
-5.7451151446658555 -20.9884250031525 4.520250786971367
-5.828728342303054 -21.016975925381182 4.499655792856414
-5.913960498405872 -21.04872538786251 4.476208478667668
-6.008527985037946 -21.095219075948194 4.450225938808039
-6.077666507458949 -21.132400183243305 4.427801999342849
-6.143357551806495 -21.168391677528135 4.402034726367571
-6.206971223814542 -21.2043064307613 4.372762436873378
-6.2791268045004065 -21.2447564108097 4.335153163709136
-6.337083251829989 -21.27695078560287 4.300838821721086
-6.394376011853875 -21.31547486926405 4.266374148490829
-6.440989345334713 -21.347342956301397 4.236607424652322
-6.487294238915552 -21.37891139292696 4.206611421031313
-6.539816759000405 -21.41472146378873 4.171079029211304
-6.578817347271854 -21.446705300905357 4.145723188283186
-6.620508551396672 -21.483096781649223 4.118664355791029
-6.667588220679895 -21.52835955257813 4.088938079527167
-6.730551142618562 -21.57503039965396 4.0460943654988615
-6.8154983633719395 -21.614703273669086 3.983556695293376
-6.88504165821177 -21.63704881480089 3.933797217762157
-6.949213327293408 -21.656955583564518 3.887197950136234
-7.017247493269347 -21.674188690011448 3.8409774661085194
-7.084351116957463 -21.69102771707535 3.7983771231871275
-7.142770109186608 -21.701485558343094 3.763087387234335
-7.22373743878284 -21.71990092603869 3.718205151634762
-7.319390501367674 -21.732472415212136 3.6681747439792396
-7.384824604201374 -21.75126535402059 3.6422544347818486
-7.490087929446877 -21.77323273030155 3.601713442937425
-7.55935764188903 -21.78261530024058 3.578094662080185
-7.617039298312744 -21.789501134963487 3.558726828143543
-7.67686548394174 -21.795525315157548 3.5381266288252293
-7.739208298074453 -21.80064878540638 3.5163537113201326
-7.802384018686516 -21.805524590768613 3.4928710593454477
-7.882981757917453 -21.811669513315103 3.466241655768872
-7.938206202148044 -21.81328976398676 3.4466477715437867
-8.006047939035387 -21.814304550280255 3.422311815858542
-8.078935622124359 -21.82139314237056 3.3981631240325068
-8.139526560394987 -21.81943168729788 3.3762961506935
-8.231336809084748 -21.80631551479933 3.3409349016036516
-8.284124628524498 -21.80434295332072 3.322224451932574
-8.332331679135617 -21.804667577419117 3.3053727217737845
-8.385712790927577 -21.808066528034736 3.2895070221936327
-8.435900790924123 -21.813293739366983 3.2748240693403012
-8.486422472678019 -21.818252026149935 3.26026394579652
-8.53446510655149 -21.828871340163474 3.2486436768816924
-8.583254882080762 -21.84169054879007 3.2381325621338206
-8.631050861787717 -21.855136103712972 3.228110031336517
-8.699926040912043 -21.875341269579906 3.215104525028312
-8.776547632977511 -21.902166083205422 3.2036139063297555
-8.858446771865314 -21.935856414668052 3.1948128914629246
-8.945963263036507 -21.967888200352547 3.186279257628873
-9.012029273172043 -21.989978365803744 3.1811211573111873
-9.073616172386057 -22.03213019942845 3.1859773971999283
-9.153197047257745 -22.07838823230007 3.192350842602053
-9.246320683554135 -22.112843665079062 3.1952438763594313
-9.32435823435683 -22.13853264464639 3.2007881775781755
-9.404041677463969 -22.175450872334523 3.215082035079582
-9.496163044784801 -22.20202149160822 3.2298669405052385
-9.582937679884324 -22.21814381570168 3.244926060133327
-9.65308973191756 -22.239076007670775 3.266631127121139
-9.75027565209922 -22.251791035130154 3.295950988773072
-9.805214104517777 -22.256449580944256 3.3160007894179544
