413
-23.792653859998158 -4.488383722042426 -6.3369723009072345
-23.83023721731597 -4.515356451257885 -6.271667975811059
-23.8592627780459 -4.535461677497054 -6.21603982883582
-23.88578190176086 -4.555673584284544 -6.1591566412203615
-23.90903838529295 -4.576797901798738 -6.103952291189676
-23.92577472823136 -4.595915230227881 -6.059531517759913
-23.945651136458935 -4.620366551085764 -5.997184199042653
-23.958993551482063 -4.641630183259278 -5.943822473972736
-23.969958920323727 -4.663987842216878 -5.890625969633803
-23.98012096426928 -4.693379390478561 -5.815866218205743
-23.985959960199747 -4.7180728704870285 -5.742756900531797
-23.987766516303964 -4.738027905279926 -5.686167997961276
-23.98700354950364 -4.757195948288395 -5.639539824006844
-23.98534055623296 -4.777246044588631 -5.593483826305196
-23.981039836500766 -4.806967869783129 -5.532926181504006
-23.974553954306952 -4.839199356748484 -5.466883578205032
-23.967287917667367 -4.866321957122185 -5.402170370629415
-23.96133931929413 -4.886298221467884 -5.355379917412339
-23.955098603696488 -4.904729412382216 -5.30606249564312
-23.947957841210226 -4.9233912259337576 -5.254040022291807
-23.94036859177862 -4.941389028589775 -5.200135886539323
-23.929423677800873 -4.968311862287587 -5.126084288039836
-23.912453451799724 -5.011810022479165 -5.021807959910961
-23.897495827177135 -5.0512321356828895 -4.951570811309317
-23.885078863448605 -5.087867328175595 -4.89182200893142
-23.8731083027605 -5.112916700087984 -4.835329372082974
-23.85448695442106 -5.15226217852174 -4.755133220297834
-23.84321549668098 -5.168739535077071 -4.7015768814232715
-23.829875345902135 -5.186207094108493 -4.641837177525892
-23.81232826897999 -5.214577981108727 -4.565434188871832
-23.792345070148357 -5.242663812352545 -4.482609881148576
-23.77717728620542 -5.258657208705019 -4.4177481096701925
-23.760421688707527 -5.280336128815423 -4.354507503455474
-23.743658936602547 -5.303418942308212 -4.286505416545065
-23.727729999192242 -5.32411662108394 -4.2269391499519555
-23.71324310560827 -5.342396859666767 -4.171942545345117
-23.689987578310017 -5.365661863370274 -4.085594433517185
-23.67064216071509 -5.3887752819612125 -4.015000944875698
-23.65132961158371 -5.416564808541539 -3.9508232778268164
-23.63240478416428 -5.441410211261045 -3.886463673376293
-23.612873774287163 -5.466486944191363 -3.821324286210797
-23.593121722599726 -5.494508323363477 -3.757425744853522
-23.573301857379636 -5.519216920671758 -3.69192032801254
-23.555817161271438 -5.542108337611468 -3.636073273324893
-23.528740825186382 -5.559562083642888 -3.5426283706682113
-23.512715942679954 -5.568640251212209 -3.4858883081652143
-23.497102787113928 -5.582648125399256 -3.4351501745704267
-23.472505674124484 -5.606120409321879 -3.356930153895657
-23.45510360086986 -5.618458834747484 -3.2975899687332646
-23.429484414401646 -5.643685310711313 -3.220590773550178
-23.4037548917376 -5.680668418033922 -3.14743265085701
-23.38535547748642 -5.698804441435861 -3.0932761515555756
-23.36301866220656 -5.720833502580023 -3.0275087490311856
-23.34567422805434 -5.73845114725664 -2.977220401746751
-23.325390267377273 -5.748105636731827 -2.9132379965848236
-23.30385553025809 -5.761644217939217 -2.84844392913282
-23.27943722474821 -5.782750540996963 -2.777615974692019
-23.261481048817455 -5.801724959895768 -2.73043290876473
-23.23837462926899 -5.8312879038689 -2.6702438745380253
-23.20704983177715 -5.872079431628501 -2.5895471161018144
-23.18065008285622 -5.906503122306468 -2.5192726404048837
-23.158094322056915 -5.92690810810703 -2.455994722656908
-23.133503506214694 -5.950942625153685 -2.388086288185425
-23.110796609539513 -5.975823181722864 -2.3269355143531243
-23.087025641002146 -5.997709636497237 -2.2617633333100247
-23.06277250376073 -6.01855357456017 -2.195142268197546
-23.038383363026774 -6.041581425370388 -2.13003504863074
-23.01377764834391 -6.068567075893791 -2.0666005968624073
-22.988937539815897 -6.098103896348639 -2.004407176213532
-22.95603501759995 -6.134403309223966 -1.9225140624228896
-22.930182394751014 -6.156633214443151 -1.8569357987698163
-22.901685677718877 -6.1798427255774895 -1.7869310146355546
-22.881583789330577 -6.203233438719993 -1.7397259770860702
-22.84867577891952 -6.235147984102607 -1.66432084077115
-22.82538749138215 -6.256681149890572 -1.6122444542663281
-22.790010937168162 -6.289755706441567 -1.5343580185261563
-22.753948063959168 -6.330810444409646 -1.4602992533178945
-22.729460657387634 -6.356249783339412 -1.411297636265283
-22.699472881842883 -6.386312401207655 -1.3529459233087135
-22.670787013053378 -6.413217065830025 -1.2988169724162588
-22.642337596121873 -6.435675974764181 -1.2460225152674547
-22.613148650817188 -6.453674661994862 -1.1937037614733206
-22.584005515650723 -6.471694992183963 -1.1426871479139684
-22.554220035424468 -6.486966109556841 -1.092834730024172
-22.51394533136126 -6.506089497908076 -1.0287621268688065
-22.476461381825505 -6.523934741952326 -0.9731281386201146
-22.445200226066778 -6.537177472318827 -0.9296312302720083
-22.41410549680301 -6.55254084768306 -0.8885942018161166
-22.378890906512247 -6.570093073650305 -0.8462333486018521
-22.310317972957026 -6.605503612856131 -0.7718873153628204
-22.263821114199573 -6.631101603638313 -0.7283001405705737
-22.226029262234768 -6.64600861096387 -0.6946239674640787
-22.16677956648644 -6.661356813588155 -0.6445544604528233
-22.110396899680083 -6.680889961323155 -0.6029304050969049
-22.062224230616646 -6.685508045164039 -0.5682787343575476
-21.988691727848853 -6.688794437118691 -0.5190452396933996
-21.926262942597557 -6.6877766834639765 -0.4812926582417647
-21.8636391341782 -6.683231376109033 -0.44567345004977743
-21.800633953524752 -6.670118993280561 -0.41199066939658247
-21.731630742020805 -6.656983855193307 -0.37875608548223694
-21.673657040768024 -6.6482833170727655 -0.35431314143988724
-21.60915073772687 -6.64342487520541 -0.3311512470405049
-21.543195580714315 -6.639260000613612 -0.311019770648687
-21.463931774003637 -6.631850895801513 -0.2892697559056234
-21.39286011640568 -6.618752595949497 -0.2720997287823952
-21.326165195433898 -6.60278048608353 -0.25777990152693375
-21.260578182708603 -6.585578223340059 -0.24552222803387824
-21.2038764857959 -6.5678386881353665 -0.23625663518133977
-21.14452443850987 -6.551539932008037 -0.22997383188319453
-21.085140708043767 -6.538125938566158 -0.22540609584759297
-21.025635008126315 -6.526091945861831 -0.22408770764766883
-20.941366830786883 -6.4922200719590695 -0.22777126511676382
-20.87437804264309 -6.461299329518175 -0.23911489224440352
-20.791283334903746 -6.416142313629679 -0.26169382165755817
-20.741264510979395 -6.391757496641391 -0.2808467013088485
-20.676419222803574 -6.358978202437676 -0.311366085891549
-20.62038288836033 -6.328222768062922 -0.3389892374576724
-20.571762425984392 -6.2919527390665415 -0.3659316654535236
-20.493677923515698 -6.232722631241166 -0.41033159128079455
-20.44679090665137 -6.2041706603105755 -0.43870539884128945
-20.39709781092106 -6.177520266470889 -0.46917277334303886
-20.341685822773723 -6.148630075435232 -0.5024869614258884
-20.298263198973537 -6.125853794257389 -0.5286721035486484
-20.236137307484093 -6.103197504120464 -0.5646164022431901
-20.16685574433891 -6.049603571582711 -0.5970248437899968
-20.124740193461903 -6.025682230028856 -0.6158008545111141
-20.082121130259903 -6.000091160959293 -0.6332528862544646
-20.038791395588454 -5.971226903643499 -0.6484683061341633
-19.99341989746745 -5.942575684321669 -0.6633339933536214
-19.938849062427572 -5.915378981796291 -0.6802238488380634
-19.884993500426773 -5.891537353367651 -0.6957950806678666
-19.803575926342514 -5.860362179328286 -0.7175218481056604
-19.725605718937114 -5.833432534801975 -0.7370117975124049
-19.644195950560047 -5.799658632034774 -0.7540798945931619
-19.560225105317016 -5.769729673300645 -0.7716315706043773
-19.485838568253047 -5.741917935873333 -0.7866106325585278
-19.431472941697272 -5.728807206941653 -0.7972026630011089
-19.37653287427969 -5.715768942942637 -0.8092208376689047
-19.286851366238007 -5.6922017970339365 -0.8267852268300295
-19.232965292939014 -5.681169730594969 -0.8377562884664926
-19.18435482507583 -5.6699448920937545 -0.8474629354052896
-19.106053825151694 -5.648331524432173 -0.8619803957432477
-19.039917561010522 -5.634205146912238 -0.8753167670619584
-18.973146788426476 -5.621043542232117 -0.889089130387595
-18.905985503303594 -5.608440067128475 -0.9033476789147832
-18.79698360182734 -5.590676551451779 -0.9270915517745298
-18.732914805547974 -5.580719505658029 -0.9417783971430415
-18.66197728878214 -5.570300169696039 -0.9585491339969536
-18.571990467099845 -5.5643246966680175 -0.981415370928274
-18.517017180817508 -5.557185311268899 -0.9950206171580793
-18.44425039002611 -5.545665381618934 -1.0131460301957878
-18.380460045679243 -5.537409161109501 -1.029811056421438
-18.318210109853833 -5.527991011211027 -1.0467294317225133
-18.225275951731067 -5.509417296170607 -1.0710713606300226
-18.134219970734073 -5.499184789550656 -1.0988935683976133
-18.052923576188068 -5.489258407623991 -1.124868387547068
-17.979424751459984 -5.477133884575936 -1.1487708067122786
-17.902445462473374 -5.461841941301401 -1.175141643770633
-17.839830937596457 -5.447528320396115 -1.1974126123301427
-17.779012728634886 -5.43327077827491 -1.219826178119213
-17.718748117078235 -5.419435863800832 -1.2427368148838558
-17.65782590397061 -5.404269944583163 -1.2661539819387144
-17.59637613422747 -5.388153687432359 -1.2899589853664801
-17.53288253242097 -5.3754451393062865 -1.3160971971127697
-17.471261969018514 -5.3644891010895766 -1.3422305358971236
-17.39451009795806 -5.351519096199168 -1.3756743626265733
-17.343505951291505 -5.342216992207259 -1.3978426600780691
-17.283746898559272 -5.329777948740288 -1.4239999137672186
-17.215201026842998 -5.317815290441069 -1.4552834559112489
-17.15413270965497 -5.3080495503813605 -1.4836928898777049
-17.085805474458315 -5.304486495594631 -1.5178481751221526
-17.022964361687208 -5.301942183414429 -1.5491816063615833
-16.9563709350066 -5.294096866723821 -1.5820158528376238
-16.87899322556899 -5.284230924927167 -1.6207921133747678
-16.827674453088434 -5.28052803758689 -1.647528055942241
-16.765780043868165 -5.278035399146069 -1.6825771546622446
-16.700552929805696 -5.277306726175652 -1.7171597504567542
-16.637835407625243 -5.276691302329045 -1.7519109197368035
-16.575756863190662 -5.278636751114405 -1.787971226327656
-16.514559120649267 -5.2836126714880844 -1.8248250651256193
-16.454086966804468 -5.287420094955825 -1.861405756838361
-16.394628177362925 -5.290146337845204 -1.8977942823662386
-16.335975014557086 -5.292263616029604 -1.933934125846702
-16.277907215232485 -5.2939091764297155 -1.9701411291591546
-16.22244130987367 -5.295688892606594 -2.0056019274683066
-16.166561604303133 -5.2970413168227735 -2.041686453113983
-16.112795932395812 -5.297728151895004 -2.0768790997412485
-16.060194478728178 -5.29757373604407 -2.1118201201457887
-16.00867067345127 -5.295949081608395 -2.1461070885147837
-15.941158216385293 -5.2885351596744155 -2.190656006802611
-15.878962131885718 -5.280691719452083 -2.232709814793259
-15.816491318509435 -5.272261039544832 -2.276101266219446
-15.77188635265924 -5.268294197946311 -2.3081226262341628
-15.72767157293033 -5.265385129480913 -2.340755489938106
-15.68445954882305 -5.258428274382691 -2.3709379526407424
-15.642350554352516 -5.250781198346654 -2.3999362663541945
-15.568882274876072 -5.2437789205988885 -2.452730682734899
-15.522934891426948 -5.238254118336505 -2.4856128280076564
-15.463834290965757 -5.230361011451169 -2.5283771570635087
-15.415090451378145 -5.222931864677969 -2.564308549836096
-15.32157909625866 -5.218008795426706 -2.6409465189665307
-15.273306141469046 -5.215225902419996 -2.6835264298295773
-15.230779297786592 -5.2094336315315255 -2.72308193246044
-15.18949098952834 -5.2040456424011285 -2.7643803765637087
-15.150143583444704 -5.198437927374469 -2.8072635223488804
-15.11242590238139 -5.194542426463494 -2.8524839644706455
-15.076588904454828 -5.191873140581674 -2.9013069479573907
-15.042094465510504 -5.18894383629333 -2.9525047163087583
-15.008440967207534 -5.185868333307379 -3.007385303313232
-14.97616273341384 -5.182827555073109 -3.0658577934399824
-14.943867575971609 -5.177084999746503 -3.129173139843171
-14.910068298700532 -5.169459790610606 -3.201414218067163
-14.877818172047848 -5.1603307843573845 -3.276809725531173
-14.857271857361045 -5.153025336958222 -3.3284650962300164
-14.83266764625491 -5.142162696825512 -3.3906284079883147
-14.814237071782497 -5.1350062482545304 -3.444416886183492
-14.7982665114529 -5.126923338017269 -3.4918007580603563
-14.773859669590074 -5.107758530500872 -3.563831371407482
-14.755234566971199 -5.091624392015889 -3.6225385817541174
-14.7378181349281 -5.075356032374518 -3.6784943661738017
-14.72088476425958 -5.05831116681121 -3.736576896301986
-14.705758788449135 -5.042666120184403 -3.7896729745206215
-14.686503949258604 -5.024314723909232 -3.864250997958631
-14.664917673118312 -5.00817689103577 -3.9561300154707784
-14.648065843495694 -5.001747577335445 -4.0465619679436395
-14.635863837188769 -4.994242461668451 -4.110498953051765
-14.622754179982254 -4.984597026395663 -4.179932782554484
-14.609575973772538 -4.975063042174485 -4.250311998137837
-14.595544227148386 -4.963109759341501 -4.33415609292514
-14.584650290258429 -4.949062262238455 -4.391326053814271
-14.571500689264655 -4.93143734733216 -4.462035463436957
-14.554728930472942 -4.908540604649351 -4.5574069428886705
-14.53654260740453 -4.887355632805409 -4.678156518231866
-14.523996181884595 -4.872836380150525 -4.770715232560207
-14.517075998295622 -4.864843734567483 -4.824349762270385
-14.50925604235634 -4.859727561301382 -4.898502937427136
-14.501056577842796 -4.855010706269619 -4.9907004596076305
-14.490006029259435 -4.840463940679392 -5.093264985031055
-14.482916959320494 -4.829553656618419 -5.164992311701935
-14.47650469207943 -4.819235820043699 -5.235840746324031
-14.470111472679056 -4.808966597679953 -5.306369614492854
-14.464829232754065 -4.800053374449021 -5.375275564868383
-14.460319513588788 -4.792021355766468 -5.444167290126048
-14.45636966342552 -4.783574962380266 -5.50942572994205
-14.451512878005031 -4.7723710100786345 -5.583875673909393
-14.448323372613613 -4.762248161226316 -5.648058217200251
-14.44563098049254 -4.752335860247597 -5.710513618718265
-14.443408609788479 -4.74245470590458 -5.771047367353621
-14.440886247269784 -4.728627360098848 -5.8672359858789935
-14.440953757228668 -4.721937372730585 -5.931348334856571
-14.44064461324027 -4.715449925392345 -5.983948902696005
-14.439902161116926 -4.706051997808792 -6.035352225076485
-14.43932228734367 -4.696899582216055 -6.086271106938639
-14.43896153793582 -4.683466684410433 -6.164854100223071
-14.440214714054166 -4.67333275913646 -6.244318444958109
-14.443375468486263 -4.662725732165813 -6.34045618500193
-14.445622292924003 -4.652832179621921 -6.416336947003499
-14.451521435160549 -4.654294118297864 -6.476874751693188
-14.4563182166056 -4.645685566989128 -6.550518129631465
-14.464948953702898 -4.639500674998898 -6.6365835840326195
-14.475341946921887 -4.631588545699884 -6.726638860398699
-14.485266939640116 -4.623615405344744 -6.803140662851561
-14.492570010687244 -4.610335923674036 -6.8593695684008775
-14.501287862602904 -4.598935040325545 -6.918061993798828
-14.51425467142499 -4.5917257642315965 -6.9802569329375626
-14.534484407872043 -4.581123100747158 -7.065211957587469
-14.546635321484635 -4.565584642277397 -7.12199592438939
-14.564031933918756 -4.541923305961512 -7.192741048970088
-14.589750357465716 -4.5264704550595 -7.272020446241024
-14.610608321719674 -4.513233225373736 -7.32947248343101
-14.632715706068542 -4.497250146653261 -7.386232723534569
-14.655230446151727 -4.477630560653211 -7.4426180175879235
-14.679899672791429 -4.457058071748477 -7.498302657245121
-14.705830181500623 -4.434302223517244 -7.553808458634695
-14.735525500359492 -4.414200040866344 -7.608436402367387
-14.77862735172761 -4.390032066219993 -7.678267522805266
-14.81619921380331 -4.3681504619240314 -7.734498395371142
-14.862805836067695 -4.330866004609692 -7.804656906028898
-14.900058088771981 -4.307791761026814 -7.853706188100697
-14.939826690882352 -4.300814735304337 -7.895013659240169
-14.9894480326905 -4.289705809992235 -7.946074453167064
-15.053418318057743 -4.259262902408878 -8.014904927113175
-15.112798231964481 -4.228286804916204 -8.076947839049607
-15.179077716850022 -4.203655935328979 -8.139091237048422
-15.24664687210461 -4.193800756808305 -8.194235321310808
-15.30936239287385 -4.175515221621998 -8.247206269364389
-15.364986186032308 -4.1607981487247905 -8.291370154019653
-15.420391315101506 -4.147058187680109 -8.333985493731426
-15.476697058939871 -4.128764926443768 -8.37648291184554
-15.541508327645424 -4.1065018924575245 -8.424021128815518
-15.589556493830088 -4.085988846979609 -8.458196641125467
-15.64581136750761 -4.059646833484865 -8.496864942766138
-15.705503317666125 -4.032765809208954 -8.5361832933874
-15.76076089821053 -4.012782406044673 -8.569837593511073
-15.819442017562436 -3.992117603910336 -8.603549205930623
-15.900350183668003 -3.9607658390889275 -8.648213982366167
-15.97524522063631 -3.934990115926841 -8.68407573348183
-16.04976208751186 -3.9096031113838894 -8.71748690531238
-16.118310797845435 -3.886325056678187 -8.743685623509833
-16.228275361371722 -3.8490229469110977 -8.779905737776708
-16.338395787821916 -3.8116191836985918 -8.806459149266836
-16.39494223889676 -3.7965653639827783 -8.815983007538327
-16.455275289608963 -3.7797277004151706 -8.821394722820582
-16.516586365325765 -3.762108914455893 -8.823676793841338
-16.590651102304566 -3.7379767452211503 -8.82164770594619
-16.662260392736872 -3.723274864617955 -8.815911169635761
-16.74964237861214 -3.705899652900809 -8.804000169868221
-16.819830908989 -3.6845955850761394 -8.790305418094231
-16.891403145623748 -3.678064129101453 -8.774996434395305
-16.964645326978758 -3.6688673932167517 -8.756056185412318
-17.027959095184745 -3.6593415300588017 -8.739300578218336
-17.10616806416605 -3.6454776147061745 -8.715094891164535
-17.156150796573726 -3.636978244799033 -8.699175213405235
-17.21883292778239 -3.6371338496251227 -8.678582475786744
-17.297332816479575 -3.63849290727041 -8.651404486019553
-17.3673854059283 -3.639344211790625 -8.62672184811213
-17.440374092804614 -3.6295150950462958 -8.599836025033367
-17.501314251985743 -3.6379962144700677 -8.577463993856107
-17.583248136995195 -3.6638648953723028 -8.548055684429338
-17.638233405142643 -3.684125150482448 -8.53098099801603
-17.706056804758166 -3.6949527466223127 -8.502181575007876
-17.77098765249025 -3.713907138991078 -8.47898105780569
-17.850821097902518 -3.737640587679998 -8.451037943720566
-17.929506443301396 -3.753128489412948 -8.424364210417123
-18.008517007872864 -3.7777397421215704 -8.399327489496976
-18.087856941016902 -3.8046251752377094 -8.377126225983712
-18.164367849691338 -3.834139690269894 -8.35703827038133
-18.256544537099455 -3.8626094719148965 -8.338694142598836
-18.306475898650483 -3.897943356382585 -8.330612685078325
-18.36540854616302 -3.9301855822703553 -8.322369433139555
-18.429522585713528 -3.964225919350609 -8.314434759719749
-18.488931299546042 -3.99330733077189 -8.30777136368129
-18.576183810222883 -4.032414463932932 -8.299067119195469
-18.629654617805688 -4.0473849193047275 -8.293165583883194
-18.717384779752535 -4.071731846457083 -8.284181669427568
-18.765822604448374 -4.0961703408574515 -8.281381399254915
-18.8152668394362 -4.11834136780844 -8.278813250935343
-18.912102395621588 -4.145608147401104 -8.269941784141327
-18.999411968118867 -4.180155398009675 -8.265233365701034
-19.059396896168845 -4.2037369907564965 -8.262444787559453
-19.132933358317143 -4.225681862948219 -8.257766607229982
-19.225417205769702 -4.248755980802929 -8.252533475361412
-19.313792900931467 -4.256460514581523 -8.24063058250813
-19.380598939895293 -4.261765497127467 -8.232448250913288
-19.446266495712205 -4.2654822152839085 -8.223537165570741
-19.510872705645763 -4.268523717866566 -8.214263868790136
-19.578618941763352 -4.267902752654821 -8.202841938980477
-19.636989645727148 -4.2647550240541445 -8.191721030202887
-19.733554970215305 -4.259220664174212 -8.17147199458139
-19.795686893767385 -4.250521760598015 -8.155783349736522
-19.84825536874982 -4.248390986410275 -8.143365948721243
-19.914545163230553 -4.248631294798772 -8.127734684495508
-19.97296836347209 -4.25507876584952 -8.115613355854384
-20.048702816475508 -4.268512708423479 -8.101492685905642
-20.128603403504368 -4.290419168006741 -8.088524878244677
-20.164859557604302 -4.3020370114863375 -8.082884897660005
-20.209530956302107 -4.31635155036826 -8.075935706904849
-20.25582769672708 -4.336790500601587 -8.070205915149732
-20.330722703526106 -4.386916468575179 -8.064696386979026
-20.38887154339433 -4.424133964316431 -8.059040612375115
-20.48937076720216 -4.461185533310498 -8.040441909819588
-20.60201037811359 -4.4778090273580915 -8.013282825135256
-20.679670532189828 -4.492401633951667 -7.99481530149356
-20.762182784407305 -4.513881598908657 -7.975108886015867
-20.842963012631724 -4.547498446961238 -7.956108958652573
-20.897890976224097 -4.5607689348356635 -7.940376853789957
-20.952715236895223 -4.562996932545356 -7.922260355525172
-21.00603689227809 -4.553893774405707 -7.900724680476891
-21.058603035758942 -4.539279068228688 -7.876630011705126
-21.133263306920767 -4.523203826493809 -7.839636625968529
-21.178697470240333 -4.519861347152206 -7.818298009483282
-21.237691776134277 -4.5173973463924035 -7.7881641087636915
-21.288130100065118 -4.5097748321811215 -7.76314035778112
-21.351815234206647 -4.491518709962934 -7.729502420383218
-21.40786225605879 -4.471618824246747 -7.700169314797781
-21.46587362259752 -4.452216646901327 -7.671573193680469
-21.515913122326932 -4.433236990250127 -7.648584278785293
-21.57315511325396 -4.406375365487266 -7.62351722586814
-21.6632886797226 -4.386024335059929 -7.594124373151864
-21.729003789620172 -4.379640104036259 -7.580003185448229
-21.83459473305748 -4.3711492296937955 -7.574202423168117
-21.90739039844062 -4.354733687289185 -7.577005271507822
-21.966850909596392 -4.341164549713515 -7.582062346098091
-22.02459470810294 -4.325465478888313 -7.587807832246343
-22.098195633315108 -4.30498316090905 -7.594429430049638
-22.186496398218466 -4.284220685275915 -7.5978212478091045
-22.246268176125803 -4.260242602613147 -7.5935557978684205
-22.297393102735985 -4.245335920355871 -7.587596497752401
-22.35213303192156 -4.206297830505251 -7.5702772859734395
-22.400350499699947 -4.174571808352918 -7.548119590976217
-22.45777138700916 -4.091449921557627 -7.523845469299713
-22.51528698945806 -4.061280901043018 -7.489286490955372
-22.604407239032486 -4.1008940450693725 -7.440363886714923
-22.68613251332154 -4.15349817447055 -7.400033205179817
-22.76211474236849 -4.188466230258996 -7.355102596182784
-22.810102767139206 -4.20710428775296 -7.323941897707913
-22.866481730207646 -4.228790456295038 -7.286048657140858
-22.959736449336344 -4.245563943048252 -7.213056612119766
-23.003838303308438 -4.2582687165545305 -7.17891651609453
-23.059103983620595 -4.278615153816309 -7.1368708739664175
-23.12176421002704 -4.307992163027979 -7.088351668811704
-23.200851044473406 -4.3263402102852115 -7.017343715844888
-23.254662439295394 -4.338578895269417 -6.967718802027969
-23.30034173354871 -4.3497680855674865 -6.924363387057454
-23.358899542286714 -4.362429725947932 -6.866542690619477
-23.409058138297535 -4.373029315620618 -6.815019809217967
-23.471539987741277 -4.38502429378101 -6.74779379515514
-23.53822899768789 -4.400577632470066 -6.673503689588026
-23.583979451453683 -4.4132432694997235 -6.620750089574985
-23.62736415552106 -4.4245930154374395 -6.56755570823953
-23.667895095719086 -4.433952142587129 -6.515141564247475
-23.70769443562956 -4.445737846865789 -6.461786568234892
-23.752676924971 -4.463208623448308 -6.397625312861942
