268
11.763965184833346 4.365466215168425 16.8788028332854
11.709299127397934 4.299963399435752 16.844207358170497
11.65307992003288 4.214183217071349 16.816193969064386
11.609621197783556 4.151681339917204 16.79258306793684
11.566725263224587 4.098217438482307 16.767117263883584
11.527164248431426 4.054491426056579 16.74141017214711
11.481340204648323 4.001817448266878 16.711805722811736
11.43937587223099 3.9550411582011247 16.685009919083505
11.392722663678343 3.9035479067816636 16.653439924181846
11.354376534778329 3.8572972602407445 16.629023440988774
11.323270047518982 3.8169595274937738 16.610744065196844
11.286075324299906 3.7669994348454647 16.587185712142304
11.248910480536193 3.7018428824311123 16.568601877380306
11.215791070070162 3.6653717713804763 16.545661597007705
11.185041562800226 3.6307274139046637 16.524177964170093
11.15429559229256 3.5955128442058477 16.5026804891786
11.113796449278588 3.5455479275189745 16.47523318248292
11.058146626180665 3.4665374942272758 16.438913621887366
11.005308989434855 3.416773639947359 16.39754518063432
10.953518339765022 3.3467852565130043 16.361086855747455
10.91170942353489 3.2973941529643644 16.329636102557934
10.868340260686814 3.2439969084822584 16.296601076962048
10.813519376602764 3.1818161313501143 16.25235977895734
10.765062701056126 3.1473489512930515 16.207226346786225
10.722339179735275 3.1157157719982953 16.16704414440798
10.687919557777732 3.0987811879375284 16.132083633871478
10.637803780887584 3.0650458317498126 16.082502386908548
10.576335513954334 3.0163504055780948 16.021255199507642
10.531234748207297 2.980342975455317 15.974440312173492
10.473815690230516 2.913285533350763 15.91617169581895
10.433741302181431 2.860525043300786 15.87380117118882
10.406974793955028 2.8219766992575908 15.84442523112109
10.377771992770683 2.7808112394118796 15.809900047838191
10.343585624471373 2.737283410387599 15.765809113346602
10.313335491676774 2.7015856363338333 15.722894696127504
10.272464952051903 2.6752238359546556 15.656116231573886
10.241189386727907 2.6590229817410194 15.600948656750202
10.215970217775347 2.6482281234161453 15.553964211029172
10.181847464776865 2.6283021263448623 15.48514053640461
10.145890850626351 2.591180494692953 15.402506781694939
10.118359639383192 2.5590505574703695 15.330338864424355
10.094897090371349 2.511965642253137 15.252164364273632
10.090378973556774 2.4859985756604788 15.226999767121633
10.081961798603434 2.4445407409541398 15.179172536927563
10.076065956990433 2.3642337192318106 15.100082850111686
10.074695866424959 2.316919319464051 15.050287102015037
10.07633186369633 2.2622969641960307 14.992520909441389
10.079938061157112 2.2121326817703872 14.936942418281664
10.084077457483488 2.173266270298593 14.895873464782948
10.089474076661908 2.132705378910165 14.848317515268924
10.096488624148842 2.088741018347834 14.79449727500019
10.105019440769018 2.040580974354075 14.728420632477281
10.119118322358464 1.9753432976776057 14.639893801048181
10.130068550385907 1.932859470634817 14.586474404847934
10.140799189313128 1.8913806750442372 14.530560356407797
10.147050731540087 1.8596875566219957 14.468918327399603
10.15744864329649 1.817549981895195 14.407887765233294
10.16809762513282 1.782103652735863 14.359366352546136
10.183284623678471 1.7389594962480466 14.30339915137725
10.200628310089552 1.6962197153181648 14.244802946805269
10.211522547958388 1.6729582172395938 14.20008483194028
10.22784089270706 1.6476427311431765 14.106288873677439
10.252738853894215 1.6111903850452478 14.012175023602193
10.270064497428876 1.59193765778432 13.941736545549997
10.286412681944409 1.5797375895265633 13.869818240743715
10.301076852801149 1.5790568861400747 13.788303220585018
10.323613327916657 1.5712715516810354 13.692279196128016
10.343050880413625 1.5659307645625429 13.6136918661723
10.360007638291059 1.556189819231352 13.558620508146117
10.377192140621071 1.558708881781036 13.479577097871438
10.407029609692824 1.5402228662103052 13.39777437330249
10.427815480163876 1.5323758395812472 13.331350545841893
10.440953762824417 1.542326487150711 13.267223207964701
10.459896340596705 1.5465364726149327 13.189643228317557
10.481826170830288 1.5408684909480952 13.116041768613371
10.503541753191744 1.529741042638003 13.051555626000171
10.522817842169834 1.5236281018351043 12.986195170590776
10.533911356671167 1.5328146357675623 12.932191048758451
10.556076825733566 1.546461191788313 12.831035822648257
10.584842677345026 1.548111621279479 12.725066034608583
10.606477801068426 1.5661007334428048 12.628867057569266
10.624630159048621 1.577617556640332 12.557204112934032
10.649828499932552 1.603022866347759 12.453715866418817
10.674185587434813 1.6164891187630106 12.372406415236899
10.699552680466933 1.6297815117823218 12.29453767377387
10.72661031771171 1.6442724871235033 12.217890031029148
10.760601796477477 1.6573130797963787 12.133664529690632
10.786844382084322 1.6669791891730448 12.075362311611023
10.817573538455003 1.6821665542472415 12.011125551725488
10.855348245639581 1.7015519474220637 11.940655421047813
10.913262480594174 1.7175395386435657 11.848986589972519
10.951410951727375 1.7263843325435992 11.795187304243173
10.992615917312481 1.7340009071631854 11.740733772463319
11.035208667396681 1.7408620787459448 11.687919425752773
11.087597311606782 1.7479390384531728 11.627036259257455
11.14828996385647 1.7542355861099415 11.560939841452514
11.21323634070732 1.762534435310065 11.49426163167767
11.262336455357808 1.7724578792201182 11.445740321995974
11.313499147608564 1.7789356831162477 11.398636707952482
11.365260253229327 1.785053084315634 11.352623620010611
11.416461600512044 1.7916559616579377 11.309382836742673
11.48886753000237 1.8031643451178923 11.250809132376464
11.555304520132012 1.822585373914066 11.200365179524132
11.606364763899665 1.8382432393686905 11.16352876528151
11.698726677447723 1.8589783907075041 11.1027781298731
11.761691562539333 1.8675511976110126 11.065628612501795
11.82026344123437 1.8752907286603309 11.03373915493958
11.882528846226968 1.8809692567272434 11.00299295894223
11.94672867986494 1.88261951223327 10.974260796920984
12.012192965888104 1.8833324386642367 10.94808683705002
12.07846840343646 1.8847294293429107 10.92463081274346
12.14515043523323 1.8861073575066936 10.903052150449307
12.212224690161552 1.886814716949666 10.883395248865572
12.272673221204329 1.8815527376382821 10.868130613145036
12.370396951215664 1.873959892700988 10.847338069201516
12.459848754039042 1.8678550945444972 10.832485915305814
12.525639907278894 1.8630014235824195 10.824089916304633
12.591392580567636 1.85754794465364 10.818123337315315
12.68315424969162 1.8495146153164104 10.813129278928
12.759987932371791 1.840062775425146 10.8130588103504
12.82182778907352 1.8355094524232847 10.815432447473178
12.89555743156394 1.8309372003690356 10.823417388814793
12.974104907018464 1.8202361706007544 10.839455168747289
13.058125953986313 1.8079789131156572 10.863481316748052
13.119952993042308 1.8016747033612353 10.88531721820708
13.180497831539316 1.7867826541941758 10.910482992578943
13.22982732226895 1.7726484207041793 10.932681358056561
13.29994779915588 1.7400623050160773 10.966681513600598
13.358426422677411 1.7217076525321175 10.996494414112519
13.418399366330387 1.7034005675661001 11.027893781956081
13.505194128797516 1.6659021309410225 11.07287633219866
13.603595325671936 1.658200991248746 11.122932045395373
13.699399230769682 1.628378819189435 11.165743128081065
13.758192715409393 1.6127800489803938 11.189989702428539
13.806545807398791 1.6023752208078559 11.20979332803944
13.902370787530323 1.591585241158362 11.25037930220449
13.990628212899704 1.5991188653640602 11.289093223938904
14.054965975897208 1.6041685804810237 11.317356843615018
14.128598092894954 1.6053012594219291 11.349915373524597
14.205266185885566 1.6057115897278074 11.384735277234721
14.319129040865011 1.6266755082781552 11.440465722721509
14.370031326930121 1.6314938456573094 11.466413422705141
14.426966767975301 1.635246245036587 11.496980209686988
14.480689912467543 1.6451027841574284 11.52805953025322
14.55868374295336 1.6695419511435885 11.579087937737881
14.625509954365373 1.7017622170050775 11.630192332470557
14.665894243699228 1.736451962998819 11.666771093644643
14.711209694020631 1.7791150160135283 11.712933701523596
14.743282076841346 1.8231241709318224 11.75029431804146
14.779633900529877 1.8674309005394374 11.797252878439144
14.816765218951115 1.9003783690692435 11.850596452504277
14.841617186181075 1.9338020069299642 11.890891854485258
14.869318271212094 1.9850522891164752 11.942081336942248
14.88509231261942 2.0301888498394236 11.974578197466336
14.910941118505761 2.1168784803236216 12.03201888285585
14.927995053740439 2.17647778051487 12.069712247084198
14.94956077941205 2.253559908445717 12.116616019844534
14.969038113717602 2.317987208393279 12.15684182159245
14.984572491075632 2.363643258125263 12.186972092099014
15.004019182596188 2.4177808819803293 12.2227939798186
15.015035212984294 2.4517069734772035 12.242146669737473
15.025562647790608 2.484130149840417 12.260641977563555
15.044048796406788 2.541618941511489 12.291784977728973
15.072606000924726 2.618333696507195 12.340441965990125
15.090844059916254 2.671044404329731 12.370843770354131
15.111082662796 2.728890918321812 12.404541336891109
15.133402637132615 2.7742779511791005 12.445258932082623
15.157820272582725 2.8363021707860145 12.48923663315092
15.178782028215863 2.889538866741752 12.527528713771073
15.199167948676614 2.942967848850694 12.566503859499734
15.231228937228444 3.0232492612993465 12.631215208111454
15.26222586795273 3.0904222275474993 12.701111844226077
15.281054867084691 3.1374819212594955 12.746149824369795
15.308829043474041 3.210593875539935 12.81686999203946
15.3294794484414 3.2690796107625344 12.878271453472692
15.34395943917438 3.3109912291382946 12.92353035765805
15.362077030734994 3.360633253706218 12.991522294758168
15.37368860782269 3.4050563160055436 13.038285282846974
15.386089608279104 3.470999310205971 13.095973426060063
15.394641170823121 3.5255037106728935 13.14106076656676
15.402419611659983 3.570666277174303 13.188417278802103
15.410246345160719 3.6192756032894735 13.248688304856689
15.418647448908164 3.6886664806436444 13.313886370177809
15.425191930608843 3.7606591603380295 13.374126726132037
15.431730186718717 3.8335220653710858 13.443656607093047
15.436034094211742 3.8839932605895697 13.499310286260062
15.4392659465204 3.9710502668675485 13.563588367596253
15.440302891066054 4.018636080613392 13.601046234730234
15.44388136627538 4.0730793384617945 13.669810260316321
15.445584292274862 4.118203813110141 13.724932064195176
15.446717721823653 4.1590160410150325 13.773239791529196
15.44813334538221 4.206530512840403 13.840614113175377
15.44910886326981 4.2463520239938966 13.901457459255528
15.449352456155182 4.287509364058142 13.960670699810361
15.448547019668897 4.337601382353051 14.029897935048854
15.446444663189698 4.38907847221715 14.096315909528414
15.441335441735792 4.460911839454319 14.181547156940795
15.438860753252857 4.4984344120682085 14.245694363204688
15.430117792062276 4.571811955742747 14.344029788738467
15.42049106366662 4.628197082075109 14.402287421345282
15.401837539053336 4.716218345096079 14.468138253778385
15.374636312672042 4.8145813920622995 14.549068579441144
15.356882334601224 4.870169316211631 14.579365464008045
15.33953782927809 4.925729424306188 14.60345172489815
15.320013617606289 4.978849328598106 14.626649306730524
15.29979737961693 5.02433030433527 14.649817756967824
15.270354574866833 5.081001834054749 14.689804000486564
15.217067903413884 5.162711906243518 14.761975890345582
15.171272270016786 5.227630036234333 14.810500726981676
15.12483522986928 5.290413815603269 14.850080572636617
15.087352444977164 5.336455772705748 14.879610467791085
15.025559556582124 5.406535338209444 14.927321134388265
14.96490686949942 5.465978367437863 14.978086753920778
14.929403323937095 5.493656376844465 15.014888531460532
14.849500410067186 5.552250322173541 15.096470681320707
14.765543189532313 5.599281879817235 15.2002573692424
14.729881905656924 5.616891018151109 15.243974385632459
14.696605456888367 5.633042357118885 15.282361788626691
14.649571317428475 5.649033794752511 15.338476018375083
14.61080443597551 5.662593061672536 15.380574135540332
14.564543214070262 5.680574590215949 15.425737649945859
14.494336498476812 5.685844764124183 15.507453407028954
14.456422646072895 5.681888926159411 15.553847321592848
14.417151605452826 5.671524832397219 15.60382205116844
14.371547337650778 5.6637419059796885 15.654592010723054
14.344529705716003 5.658319583513084 15.683117800606436
14.31269629936794 5.651931205518342 15.716727190687898
14.290627833547525 5.64986614658281 15.737506276916914
14.220092664981912 5.6462782063417984 15.796744842299159
14.147301272828557 5.6455859320582755 15.850620148136052
14.080547692416836 5.657005325227533 15.888898557583474
14.010825530925732 5.665681261517272 15.927696344337878
13.94583224678955 5.659726608396834 15.97093630994064
13.875532723483019 5.65772175470585 16.012854711534622
13.802293674971068 5.657481532848771 16.051975322011515
13.718839180934093 5.65883383085788 16.09345691382044
13.654673005324113 5.657478383082778 16.12533685473153
13.543916582954253 5.6532346108999185 16.18113271531449
13.464268549677712 5.6353834769509215 16.22703663318655
13.396106693821839 5.619624458967332 16.266817245055655
13.322856117661196 5.5846835372625065 16.321862041521072
13.265670428714284 5.552624014340064 16.367593621438914
13.196678042280844 5.51462763884875 16.420280558783166
13.153242492122967 5.497737022356508 16.446747919521925
13.097194282920444 5.479513540169326 16.476831361602024
13.046460584812941 5.459934731426163 16.505099354208117
13.007881321138374 5.439097745463787 16.5299163454681
12.933517377527942 5.403064757739129 16.569983504756863
12.889334722060589 5.368321833105098 16.60317931306097
12.840371310799867 5.325065514074398 16.64052343801155
12.790280025869926 5.277248376476191 16.678811679083147
12.718890476040166 5.216990269197063 16.724065582099524
12.653294908802447 5.162738338543618 16.76121675352129
12.58724771403029 5.109476775446351 16.7950477273261
12.524006030632474 5.062825635480124 16.820851290068752
12.459454602500461 5.017264786163196 16.843463407692923
12.41349179837444 4.985353034051929 16.85721745249527
12.378456078402568 4.952653047030158 16.872744720014126
12.333146531127387 4.916944801025347 16.886815714675123
12.28809710305854 4.88196304861858 16.89905100643856
12.22956781810694 4.831235751100379 16.91651419093707
12.147548273125736 4.770874513031017 16.93171073156998
12.058727301643245 4.694842507929355 16.96311302562156
12.005944853504438 4.632858299092325 16.986517437354212
11.943430217847052 4.555061161052896 16.982751563892293
11.913843271769156 4.51139190627167 16.97137818687949
11.849909351483834 4.462126426962612 16.93043433966918
11.804827150165833 4.41288471158559 16.903327857561806
