322
4.068784451240679 1.172886971368668 24.400837949430137
4.035446949299728 1.140876685031215 24.359779774739923
3.980127868575468 1.065056477841283 24.289698609436634
3.9386069701705786 1.004647076571337 24.22769381887743
3.899434681982272 0.954640746336217 24.15947096135834
3.873880698123787 0.9246782695233955 24.106957242134225
3.8508387168098963 0.9018556129275301 24.055651215133494
3.8222571880758904 0.8696124699372711 23.98953022833217
3.796548853387943 0.8317461932182739 23.929108566118625
3.7672220956046045 0.7769233676278862 23.858424423951647
3.7395987104359625 0.726206105188935 23.78693075646518
3.7136684090243017 0.6900263022938498 23.711696014280605
3.698399197899751 0.6686193492803907 23.66318578173023
3.682899490184951 0.6456341418400127 23.61305373146986
3.6688994952213614 0.6241169078881093 23.569762901600043
3.646040869401892 0.5846890236390399 23.495603396528356
3.6247634875984787 0.5485262757983909 23.422532707918883
3.6055840847471865 0.5180185235777965 23.352606491203208
3.5879766698189126 0.4880079144627396 23.285888635172224
3.5682739469840623 0.45468022321317814 23.211643121179097
3.5589117438710485 0.4373493964599289 23.179215166557107
3.548570337439421 0.414960874693749 23.14658892176884
3.53071437067854 0.3772727643371565 23.06862571002084
3.518103700739374 0.35878214414930176 23.011077553037875
3.500127438144247 0.3405791962622622 22.92595979863913
3.481147382118005 0.3163013997662263 22.821425739209253
3.464275225054573 0.2917340239089794 22.7317485455066
3.4517372373037274 0.27408388371708603 22.658334622172205
3.4403059953496298 0.2579127700624342 22.583681766353468
3.42238758448258 0.21490538459590147 22.50144344422895
3.405793547712559 0.17285626709333335 22.421303676833134
3.386205642664521 0.11745870542039927 22.33838155316293
3.3687723390435806 0.06325461793296738 22.26500223745919
3.355092359405294 0.020313786392236244 22.199824273889895
3.3438776655958256 -0.017186510631627572 22.145513844958003
3.335118921567781 -0.049787588240744585 22.09681355673803
3.323342586913941 -0.09940463486213358 22.01844775219527
3.3163788222630943 -0.13947649290817243 21.958007639210997
3.312573591503658 -0.17588597554253416 21.910095248965106
3.310235261131737 -0.2233336722343442 21.86694827418681
3.3118328599824407 -0.2834494177839597 21.82252247404198
3.3182458427590236 -0.3401101929658321 21.78116328504074
3.3351767876410765 -0.41405764748853113 21.71617723986207
3.350876161196836 -0.45567739438203625 21.67447982878357
3.370846105529826 -0.49592396880587164 21.631327648000322
3.394483912036028 -0.5348583152001496 21.589015434390298
3.427604548530849 -0.5864590029876473 21.548563131797504
3.45244328816064 -0.6246696046166147 21.520925194875954
3.4970386597173517 -0.685347592697058 21.48614883425634
3.5400450196781224 -0.7351644106733464 21.457389550154545
3.611874670670085 -0.8033599866237406 21.41526015302208
3.650480433301082 -0.8367264597826154 21.392588135429737
3.6738732073430036 -0.8547815736631208 21.38024104969316
3.7347897868098103 -0.9083933993288069 21.35538887652392
3.784156534318539 -0.9405159521680881 21.32842426325649
3.8637504088632015 -0.9935361481189695 21.29022016932054
3.9261045157287793 -1.014994072251022 21.245184160559486
3.977753851415221 -1.034325269428065 21.21048269427922
4.022519496134185 -1.0307726028384885 21.16374008116237
4.063081390863643 -1.0218433077097588 21.117868860393983
4.135890967379027 -1.0209478248235977 21.049513453291713
4.172289160737763 -1.0176778187587578 21.013362790350364
4.218032867904447 -1.0041361361906012 20.960519464663925
4.27976546938424 -0.9975334691649842 20.89951017735316
4.315406883096471 -0.968275128325436 20.844516447264965
4.354262596502473 -0.9531480265668419 20.796478343761315
4.400148701716424 -0.9236887462746417 20.73118604639646
4.450309040105092 -0.9077735969184044 20.673716996806338
4.482426453350746 -0.8731652044064229 20.61703086375725
4.506217111993453 -0.851782016637838 20.57763214227543
4.532769893559466 -0.831526669235995 20.537522592337137
4.561630306707171 -0.8101858144818899 20.493790000787563
4.607403648166237 -0.7701999280897367 20.418990940778194
4.638009478742946 -0.7297648997731809 20.356966552360014
4.659875847045127 -0.7018605489158765 20.31308505521176
4.681661530420003 -0.6761733045856559 20.270533640016765
4.70412243554479 -0.6535410526455447 20.230440714896172
4.734802973324451 -0.6310185861365325 20.182329969127462
4.773076285523127 -0.6008830370023317 20.118926501339523
4.807024524277365 -0.5597447712732173 20.04664838520008
4.827990165239236 -0.5360973774209736 20.00382820069947
4.85213647153895 -0.5175720747656432 19.96134671331224
4.877514383597756 -0.501167003315458 19.919486107484605
4.9141354159323765 -0.4799155761124416 19.86034796026079
4.9522826211906965 -0.45060812934897876 19.7910686683111
4.975703740794744 -0.43081559334699215 19.746960457418453
4.997079058677363 -0.40737774174990116 19.700996212878067
5.017956166250005 -0.3828635191531957 19.654456542440002
5.042982590848197 -0.3662916284069022 19.610630548306396
5.069321128619714 -0.3519685131393342 19.568229439017287
5.1105327044155375 -0.3348774413952331 19.50712980621061
5.152798424000172 -0.32042747138675254 19.447544682469598
5.193969923071974 -0.31380650379933894 19.396682973650236
5.245412496421157 -0.31224088857783827 19.339858075454266
5.297300593930696 -0.30783319643120266 19.280799331621868
5.3283710135396145 -0.30056158360776775 19.241634739990104
5.366968082990413 -0.28532610429459404 19.188952729031666
5.432474661432415 -0.24144101755216618 19.086814869872356
5.4988830107949065 -0.2347639794081744 19.020390044196795
5.545043336823709 -0.22145288392852547 18.969599898461624
5.586645218622636 -0.21842378771151005 18.93320837915112
5.637768196688065 -0.22039771946941955 18.895719276141325
5.687109234245697 -0.2299331465534824 18.867879616665935
5.741639470621026 -0.2422865204198248 18.841293469019114
5.814935883606609 -0.2609872318731521 18.81278832773823
5.871200432856502 -0.2741172210728984 18.793489998979684
5.920314075894024 -0.28304318403750295 18.777133058166886
5.992090414499326 -0.28625726534196105 18.74952488252286
6.051712362497479 -0.28906304019263396 18.729724544705096
6.10615104382914 -0.2918713416562879 18.713819846599876
6.1609235636872315 -0.29625003808437556 18.700966169203966
6.2415080226286035 -0.2943433591550415 18.680454614460015
6.294987153527418 -0.2919180469103344 18.666867790801568
6.369453826643005 -0.3099408847594438 18.668626129137557
6.419751512737233 -0.3208103804754707 18.66889918813667
6.512757341212016 -0.3382163496356443 18.67132484191788
6.6016403218006685 -0.3667780398310161 18.687677064480297
6.660709967778932 -0.35822581084215455 18.68252603894995
6.760902595490463 -0.34507578669874683 18.678323980779595
6.881903314190578 -0.336365200432285 18.68253838186575
6.965690385395114 -0.3290366421559032 18.687304848303846
7.046102090461309 -0.3269450482422569 18.69732860435652
7.0989129665351935 -0.3280606430208135 18.706278170585957
7.152053271672235 -0.32769995553756925 18.714682471870503
7.238044512911628 -0.3313141937268418 18.732850792309883
7.3099733305327845 -0.3452963731547476 18.75636948654984
7.369135482003874 -0.3593603828979204 18.776944345772698
7.434513070669689 -0.3622992819996089 18.792672453899964
7.498996436013831 -0.36405710371655986 18.807561509637498
7.568053134973479 -0.3702314388729093 18.82598263618896
7.621361103181985 -0.37466421767995617 18.840289421923885
7.70422688680755 -0.37421210211050426 18.858434067794548
7.780623846545262 -0.37824421394620633 18.87826413251873
7.830116156847461 -0.38010700699672406 18.890919725169123
7.879765048180089 -0.3793693148955539 18.90189189874151
7.945345219093838 -0.3729316542307164 18.91432548758724
8.025893497067772 -0.3572409524223723 18.9257909142178
8.102846019105428 -0.3385263104678444 18.936097279085914
8.190734732570055 -0.31440296232600784 18.94739575187458
8.281107681374783 -0.2808206723430937 18.955968833696637
8.35596918317938 -0.2507896029189933 18.964011124934956
8.416707366577233 -0.23508675092222941 18.974819888397477
8.477737821840986 -0.19677091519023038 18.976801315462975
8.561972473823992 -0.15227857335922867 18.98594835550661
8.644392473387692 -0.12238327016728534 19.001912414255163
8.707015793879831 -0.09337539804095774 19.012038953592896
8.771221744056392 -0.06937476282850263 19.026127366891913
8.854567508670563 -0.039433060206980786 19.0465318403709
8.913794998534776 -0.014255468371200175 19.061096905097138
9.00738974798883 0.008357152498657205 19.09043320234376
9.060707890295404 0.036470988447119934 19.105327776145206
9.119776098920683 0.07446581594557133 19.123098885302138
9.1691369989487 0.11773364833207256 19.137753403582533
9.220528033360274 0.17238626793848488 19.15593387980395
9.292406485044056 0.2331313027535813 19.18946869899497
9.327427573350375 0.28099194336053546 19.207716972187587
9.371383837407432 0.3353482057916588 19.235473058090363
9.40121173948001 0.37079226819076516 19.256273516460368
9.452870415721437 0.4251233249517108 19.296878754404403
9.493774370892982 0.44814135866966853 19.3303192213584
9.545437041200758 0.4730557496471295 19.3739043324737
9.598244870453732 0.5090414286575731 19.42189016456745
9.641785039621352 0.5535562219858894 19.46979327434244
9.695471510502916 0.6172932983914048 19.53403303197103
9.749363896636545 0.6666307139498036 19.599664184686812
9.779841587034856 0.6889458592965843 19.636319439267147
9.820587024954095 0.7139311753576887 19.685336198839295
9.863222086632875 0.7327579721690112 19.735165559699258
9.903050541702036 0.7532188121729548 19.783195376903752
9.954128443980071 0.781087436968823 19.848603745302782
9.989288267734514 0.8028378613970044 19.89629880200843
10.031743888675873 0.8368073579881476 19.958387844254965
10.071871454886058 0.8730973372020177 20.021127498490358
10.10719783880448 0.900792979008372 20.075052119728934
10.15801881735163 0.9245551519401933 20.14892352621001
10.188184603967695 0.9389713484471878 20.197885869862375
10.216473836527205 0.9490673058858261 20.245761903772397
10.255456472359501 0.9546070741711785 20.312540733758826
10.27924161842259 0.9633568729602071 20.363616526202655
10.311195531346003 0.9662618382432615 20.429539184190872
10.339019245681902 0.9605255532422079 20.48296366411329
10.369025409966074 0.9554903554074652 20.547822729487866
10.397575297832693 0.9454111090717265 20.60766582483526
10.425980238643508 0.9335026267875433 20.667639795376033
10.453269537011856 0.9193103038957762 20.72390534197456
10.492972934633217 0.8984442432410462 20.807237055071692
10.52855607034756 0.8793610954602478 20.881491107526653
10.56400256762768 0.8512343025907121 20.943607457484998
10.589878206063918 0.835404401604875 20.992357178065028
10.628799941622075 0.8223465981297877 21.075629093254687
10.661295803090152 0.8037687352390408 21.135600739675166
10.682776913923018 0.8019188888623432 21.193446967697017
10.695471304371452 0.8257072296871557 21.267472218556275
10.704146798268978 0.8478230992978035 21.327097272439136
10.703167704641624 0.8875048822918454 21.38443330191423
10.698705934069244 0.9472106508997082 21.458982453462998
10.692846419667502 1.0120537868361372 21.54730507715676
10.689376625856308 1.0482880408543778 21.600777707072496
10.67568112524117 1.1036711770460428 21.63831614181259
10.663873227573673 1.1613445892741223 21.695246997291683
10.655148039159577 1.205082868477725 21.746050839387337
10.641442180218762 1.2508521136890136 21.767770812306466
10.625101359267898 1.308061672536155 21.813583964376946
10.60202514180846 1.3851942499828531 21.865257181041333
10.574880108662425 1.4612323366964801 21.893147252482184
10.558680554542924 1.5078860507582552 21.917898227876073
10.540968371647946 1.5561804002245878 21.939084065543554
10.52307863011119 1.6031046690482682 21.958826167982927
10.497991549301881 1.6670503833315296 21.990541054077497
10.47356756391447 1.726515612848943 22.022284752016965
10.451774166693374 1.775391427155 22.047165362420422
10.419029381195378 1.8423618436764062 22.087584472697998
10.37618869992222 1.9203728175875747 22.135983959983584
10.34645403087873 1.969905967709306 22.168229505732842
10.31745379155958 2.014269272865951 22.197752422035705
10.281863950731806 2.0650936408273726 22.23407202388949
10.245156132242071 2.113653612344736 22.25986456811791
10.192522627805475 2.182370487490515 22.292444845344026
10.142556011002892 2.2438702453616157 22.31211696462373
10.091197926635818 2.304743472925537 22.33164193913844
10.042703912143716 2.357846326624628 22.3523136313247
10.009798738622514 2.390448791976082 22.379207006194697
9.962128944276476 2.43807432852884 22.410118623809158
9.91267887236253 2.4840466713349043 22.44628744518806
9.850491658890961 2.5412598575918075 22.486719624472645
9.785651032360878 2.6005153251512443 22.524950591783863
9.734181993903134 2.645707867041062 22.559310319398364
9.68008706736446 2.692816224208963 22.59554175433374
9.63411991771524 2.7338162855748775 22.624201168852615
9.591296281174548 2.7716564969413477 22.65040829778562
9.548845485379056 2.8097358572995175 22.6784302472689
9.499075053390703 2.853932823453377 22.71335832425322
9.463229127524697 2.8858815900579398 22.737016849142456
9.419580730573545 2.9260698038419353 22.764520791519487
9.374793078968013 2.96630999255971 22.791583339643342
9.330973830781017 3.005442912380256 22.818294315179806
9.282917205317494 3.0479744780659592 22.843784763795362
9.234142701426912 3.0908444401933535 22.8652420956342
9.184291133956485 3.134544882524801 22.884716456011713
9.123076999847775 3.1855281646583844 22.906091682808885
9.055235690516845 3.2392970054703225 22.92859919780126
8.982460601532685 3.2944727827990166 22.95316745478227
8.911631045833467 3.3411120434154586 22.98650265156321
8.839313295966942 3.3846560066031124 23.020389510048435
8.783911068707974 3.4149943246943737 23.046145698904713
8.714236834731171 3.449786174872477 23.075642265092025
8.668484697365194 3.4692000054752627 23.09872124032073
8.59758993980715 3.4942281936482207 23.13794203567565
8.55368741588789 3.5067867262388317 23.164295007870184
8.50061150157288 3.5208795545720424 23.191498787030984
8.445632278587924 3.5349457254680026 23.21638028262981
8.380657177370988 3.547950801353503 23.248383432845355
8.32770237537029 3.5603266042809096 23.26468389909852
8.270314652259552 3.571786815737439 23.287236648334368
8.195013304538161 3.5828154437233337 23.324285339519463
8.150686697422433 3.583619682120003 23.349599480957817
8.086363689859134 3.5845199275063573 23.390569112034488
8.026012003068727 3.5843148292533753 23.4275650193366
7.9635400071979126 3.584947012382348 23.46156965946243
7.907950178947062 3.5858378015746197 23.48911476358899
7.8353985280706375 3.585089657252497 23.52547282249265
7.76528353215478 3.5901347947355653 23.54761451767918
7.7113524468564965 3.5927647522497583 23.565561516856196
7.632018575280506 3.5891896470709455 23.603074365546878
7.5678619805014105 3.585308293744526 23.634334508968454
7.5053696778154455 3.578815580609204 23.66739592930424
7.4164211867337455 3.5659458443468486 23.71731147527543
7.341506798841768 3.5590877455378234 23.750009967972794
7.285250698873367 3.552684865647218 23.774252117102076
7.221579113007245 3.542108481880139 23.805699887420424
7.164756476602585 3.5315355915685096 23.834308324004812
7.1111278036732175 3.5184286215169003 23.864257566364856
7.059520944526157 3.5042036497571685 23.89317151372255
7.004439980833609 3.490161556428659 23.921791893017257
6.930379897012242 3.4704378187432177 23.959439347346564
6.8540883339138965 3.4545375726665366 23.989176178443003
6.776503478574945 3.4386572217042746 24.0176266284961
6.717667343422293 3.426421478733964 24.03808923080978
6.65967657989721 3.4132323191277694 24.057271736766666
6.569881659748391 3.3894067560294365 24.0846026053027
6.505590486875193 3.3700197109859955 24.10243407264083
6.401235565478111 3.328579383323105 24.134213234441145
6.335114819419903 3.2778002968826003 24.175993820811744
6.258434893150264 3.215910895353953 24.219182478491128
6.188230449077489 3.1549407917944388 24.256421944780275
6.12356949407436 3.096264041684962 24.2894507540189
6.0810468673224465 3.066420704480258 24.295826371533895
6.028098392434162 3.0328011757622892 24.305728436429025
5.965040437288452 2.990282708220799 24.314155598184946
5.897658082744616 2.9373852508729525 24.3276248663458
5.857765848752025 2.9051710779780677 24.337539465505078
5.81858187422875 2.8731217879803426 24.347904231462657
5.771122056358392 2.8270612112443274 24.36320310692983
5.705369399300973 2.771768359941338 24.379647462686126
5.667104729817627 2.740298476506486 24.387792702597096
5.618181537538667 2.6996194040910275 24.398946495221956
5.568445371245088 2.6575321353844306 24.41029162114126
5.513698270413074 2.609809801909048 24.42408552462581
5.436903507595954 2.5251811652802987 24.45624918802641
5.3636900898879585 2.4535279942586907 24.478470132262554
5.2968952510151635 2.389030498512306 24.4970485838586
5.231108125741605 2.331967236148337 24.50932531598192
5.170745440447193 2.280924832923013 24.51882815143178
5.0956053375298636 2.2189569131362186 24.528270097353747
5.039811174909198 2.170946375006925 24.535928288688986
4.977989542572611 2.1177701812872964 24.543005639134883
4.929760243611759 2.0720679314323016 24.550761515331995
4.875905726710038 2.020731530659746 24.558357623948986
4.822021623125988 1.970606589139347 24.56383260664915
4.743597352095764 1.894415854229624 24.57134505970761
4.663505195651095 1.7964289736230812 24.588064736728356
4.622458725571484 1.7437146709306812 24.595841293941728
4.592080007464527 1.7037697573355934 24.600805929730896
4.559757921548758 1.6630014201462842 24.605280437492155
4.515321319304383 1.6056833665018206 24.609243538925252
4.422408940387256 1.4897325617654082 24.607964925828494
4.375358473677231 1.439988113148163 24.598562041773967
4.292972500750737 1.372018228640148 24.565191787481805
4.254005069793456 1.3339678864251316 24.54806733289791
4.199422368473971 1.2738796243906456 24.52111482111352
4.140549972720684 1.22917866949669 24.474071674272658
4.10270111258094 1.200741141891413 24.437438324206184
