234
-8.595673536468183 -13.148465141156233 -5.250736462775244
-8.662218523797986 -13.128267894919276 -5.223992065448034
-8.735528055909995 -13.109304329143512 -5.18996157139111
-8.805419521785776 -13.088944384282131 -5.152192219005967
-8.887549374518228 -13.045697596992634 -5.09700539790038
-8.932083821878082 -13.031336717669717 -5.061222551593838
-8.96467516245127 -13.022622120781179 -5.0330384013652045
-8.993585683548993 -13.019446213285155 -5.00655961284358
-9.038367943082823 -13.01949142897678 -4.9629425558533296
-9.09921667124649 -13.022544028524901 -4.90137080884188
-9.146192672071559 -13.017317973584731 -4.84686864672579
-9.191375451438894 -13.015743030718594 -4.7962206418035995
-9.239230840976612 -13.013251317855158 -4.743372894869802
-9.30348509252292 -13.002829775227458 -4.669243998053823
-9.361497615550137 -12.98159927125836 -4.594416759630023
-9.39263632669771 -12.972696964432764 -4.553013445936832
-9.463693222833037 -12.965252178428917 -4.462659709111253
-9.480854748495448 -12.929196676610953 -4.421244852294861
-9.549115332101788 -12.911663992875152 -4.320225904333254
-9.578668503021937 -12.88958817762046 -4.268209367813967
-9.611674358077625 -12.866995288447809 -4.208731396986653
-9.68309396883375 -12.841202848962453 -4.082410065663087
-9.728194569575622 -12.798038815147196 -3.983025535527335
-9.741789140847182 -12.746349041519913 -3.932641050561763
-9.773523528568285 -12.713182238105784 -3.856239049172916
-9.818062471775892 -12.671654978209858 -3.757517253093398
-9.839260001001106 -12.627245562956993 -3.693330283874957
-9.851827638411622 -12.59713374560533 -3.6521179676848012
-9.867235763387932 -12.548715092350362 -3.591528066584713
-9.877417553967556 -12.507500086165184 -3.5413415124800487
-9.888733483001698 -12.465531905796933 -3.482641276524628
-9.893043937054697 -12.424134551776536 -3.431048094743117
-9.893170072805898 -12.382661170092502 -3.3803221715622733
-9.882894888040065 -12.320790001588035 -3.314348334943145
-9.868542564482528 -12.267653061078171 -3.253986376281408
-9.856581145304576 -12.223166714759833 -3.1642197970586077
-9.831590881921207 -12.174595143507688 -3.107216979615978
-9.807196248177068 -12.132616444199446 -3.048725426032421
-9.791932717012232 -12.104881950307213 -2.9916804186438846
-9.754796463308436 -12.050487374140985 -2.9259561240556202
-9.71727621085554 -11.999269057007744 -2.8764936468870728
-9.670541130784807 -11.939669826577623 -2.8307477708300546
-9.638764247306304 -11.89977564007356 -2.781627861476066
-9.605263767981961 -11.859928657304305 -2.7323067878216953
-9.563625394875674 -11.810769080193223 -2.6982336790975117
-9.53127148083522 -11.774569002874617 -2.680510031066789
-9.479868670107361 -11.71807295967632 -2.662876389217166
-9.406550237253864 -11.641084912983729 -2.6077718617246406
-9.358195629405843 -11.592832016030604 -2.576384902394386
-9.311632078955974 -11.547599925139673 -2.540259538562446
-9.254258143705764 -11.494432492555653 -2.4921013084193557
-9.19481140946409 -11.442410034028017 -2.4520497828147683
-9.138188785155293 -11.395727133146709 -2.4098480963637527
-9.088061073950488 -11.357015362352527 -2.3730315895546523
-9.033259366881898 -11.317083074089567 -2.33742897102674
-8.987180000282518 -11.285970676202876 -2.3135166979043733
-8.9340183314797 -11.252277652786262 -2.282124959710683
-8.880403463251566 -11.220152683304736 -2.248401098959903
-8.815387823609964 -11.183275209004378 -2.2083908681567577
-8.753362994751585 -11.151497276512103 -2.1651013268206603
-8.704952468280423 -11.132217678290774 -2.1172942165718567
-8.662297405217805 -11.118387104993287 -2.0691097368789535
-8.61020059548132 -11.10267415615452 -2.016702704083573
-8.53038116225962 -11.075819852802297 -1.9601091747914137
-8.455661559925186 -11.05810145428654 -1.9014032047566698
-8.39583369593956 -11.047201773510727 -1.852336097618583
-8.347820397374708 -11.036889750156405 -1.8257454063005787
-8.287937073800846 -11.023824198274088 -1.7952716834171352
-8.22121687817247 -11.006335771276348 -1.773385009423236
-8.152300738670592 -10.98879208743773 -1.7539970871633248
-8.090215253088894 -10.978147407206722 -1.7323196184508414
-8.026219670799652 -10.97736778918439 -1.6970697507329497
-7.955254671555629 -10.980303936307132 -1.6594772133825748
-7.894405578731023 -10.981508794558291 -1.632214955687844
-7.8495414566330375 -10.990973631392853 -1.605507786024248
-7.788141635513519 -11.00960040918457 -1.5664878444406798
-7.710359317441414 -11.023339858129502 -1.535900332286378
-7.613391448535614 -11.031765480862397 -1.5144490578861352
-7.533733681901712 -11.040650818844927 -1.4971358368748853
-7.44386287134917 -11.02976869032005 -1.5065101901479487
-7.366699317568454 -11.040558200193598 -1.4938863487473466
-7.275836496082318 -11.049470637131128 -1.4855042807273195
-7.204758922971898 -11.05159759896593 -1.4851008753069215
-7.124529107229096 -11.058647008636267 -1.4817079594625258
-7.0567578255027765 -11.069908306704301 -1.4746144297913084
-6.956110444629182 -11.068557138732627 -1.483822240429631
-6.884828526251917 -11.071163963640656 -1.4874459425345308
-6.807347707088068 -11.080370347837627 -1.487402015826847
-6.741666646341914 -11.097859546777766 -1.4792612683737245
-6.693799360486393 -11.113460838020691 -1.4715199725999046
-6.608431039011014 -11.141250522411282 -1.4599452126668606
-6.537892909705215 -11.159880635088825 -1.4540753261497843
-6.4765291949679895 -11.170390981648767 -1.4555828379910374
-6.411520511607494 -11.182071655801797 -1.4575752192175095
-6.350091718077151 -11.197579659878349 -1.4564445923114537
-6.291752608183559 -11.213833980345004 -1.4547605271480217
-6.2335068243395835 -11.231076295388513 -1.4535763376289739
-6.147811233764875 -11.252863291492323 -1.4567077105245814
-6.058409519301106 -11.261554179078196 -1.4741358898505574
-6.007556131493596 -11.272653389713254 -1.4825005071139297
-5.928911867227917 -11.300067516771037 -1.4937645113385465
-5.872328235063401 -11.318674253097958 -1.5061326121209044
-5.814154687938544 -11.338211592210474 -1.522061428120723
-5.733117096410798 -11.359775788539796 -1.55468998158697
-5.657398005544625 -11.390766465827515 -1.5853374423134226
-5.605594224534002 -11.415409786831583 -1.6074564262196136
-5.544450534043426 -11.452123370480166 -1.6333599402621328
-5.478415514103393 -11.48004626011043 -1.668315898065549
-5.3778658233048695 -11.539685763578667 -1.7150398023727356
-5.285193256890933 -11.593710748008151 -1.7557110740203428
-5.2352725931030815 -11.620908884225702 -1.7760427256751277
-5.186806887332642 -11.660912094917528 -1.7865849553397315
-5.133843187767722 -11.708060520097469 -1.7994139820926265
-5.058446178811822 -11.736378506873935 -1.835320994438786
-4.994169603641437 -11.760077247860607 -1.8669590448927071
-4.931096224633514 -11.795360543547428 -1.8933596072895569
-4.870185081325047 -11.834995913487274 -1.915576331692747
-4.819828925480763 -11.875178007623354 -1.9324516691062332
-4.767773611386136 -11.91152665544546 -1.9497933256517197
-4.707805253775891 -11.938100634012846 -1.9840752443544771
-4.623456872834767 -11.989924283739168 -2.024111502756166
-4.539122443800515 -12.01406006594413 -2.078432750647276
-4.487128237579725 -12.033666239196233 -2.1120491723297157
-4.412168521733999 -12.084512199184688 -2.152262783231925
-4.3606122721345475 -12.11922490502151 -2.1825260773336943
-4.307673402277228 -12.157875390800783 -2.2146252039017558
-4.262574277358123 -12.192082456764705 -2.2426626616553174
-4.20143084657043 -12.238893826671676 -2.2804214750379064
-4.10183873721717 -12.308096621375404 -2.3432933167737104
-4.052235927878611 -12.352998211160195 -2.3715295809506607
-4.003118820301841 -12.392118795005103 -2.400776576779217
-3.9736823465760427 -12.429806682220935 -2.4158572440262454
-3.932320028323689 -12.466156950826473 -2.43987126645567
-3.8821963058240314 -12.517920987808592 -2.468893195936131
-3.8378623464293913 -12.579994943205097 -2.492747937010786
-3.8086680765311725 -12.621929582873197 -2.5099192180030467
-3.7743524914502533 -12.666508264362076 -2.530719563404123
-3.712472739519872 -12.743819834749148 -2.573187738590611
-3.6605525938908983 -12.822772289618566 -2.613491088434473
-3.6375224948171105 -12.867543370969859 -2.6333924268788538
-3.612352261601785 -12.92488005275911 -2.6591370122934377
-3.5948127690048404 -13.001407927324326 -2.6867321274361746
-3.5835829219249407 -13.07732355988711 -2.7192383298398637
-3.5768230009502737 -13.148102523551405 -2.7602416239514342
-3.5607716713497917 -13.204188445304291 -2.8289200709672144
-3.554207041571196 -13.240682603264919 -2.882759170576306
-3.5556840380817487 -13.271215564003528 -2.9268877235022277
-3.562904700916161 -13.308783202280868 -2.984403862550023
-3.575981871611013 -13.347626186621742 -3.052732528875164
-3.600221492652347 -13.390640980099995 -3.1283913958332574
-3.6299455358585737 -13.428653945564095 -3.188358556667577
-3.6722170857429832 -13.474625047319227 -3.2510915001710314
-3.7109929963266914 -13.511097189058297 -3.304370091137068
-3.7433741104144342 -13.538431175356969 -3.358700815002109
-3.7807644224944905 -13.565689425382223 -3.423312931952032
-3.811013960304882 -13.57889667043114 -3.502430634375548
-3.83179326814071 -13.58729947998118 -3.551162251394514
-3.867951858030434 -13.59835809094123 -3.620810186125248
-3.93669620752578 -13.602308460693308 -3.735218598003752
-3.9678213170772594 -13.600003672391393 -3.780855162439676
-4.01225612684132 -13.589711074977963 -3.8455790445794875
-4.048188228136528 -13.580521037384667 -3.896011775401454
-4.08587660621723 -13.57168238135641 -3.9441708086824905
-4.126844170948102 -13.563585378457226 -3.9931820166619536
-4.171012407657301 -13.551024961059714 -4.049564944547332
-4.214570978438257 -13.539830903383267 -4.1037460174977545
-4.268090624918962 -13.531522036507818 -4.16454608274552
-4.313378169349884 -13.512124275109965 -4.231685557364695
-4.345871329241756 -13.492347981462833 -4.287655252399266
-4.393005827507695 -13.475044668523898 -4.355505226837011
-4.446148482108752 -13.47667908614746 -4.405674411659871
-4.516884115654083 -13.475344404452027 -4.478259345604963
-4.574426035654277 -13.49102908180174 -4.5182892841721385
-4.626989611888053 -13.512914963416632 -4.546711727773777
-4.6999885706357105 -13.547191043035728 -4.582625261806721
-4.752543661654341 -13.57519103494703 -4.6055851898604
-4.795419798872436 -13.600072104761864 -4.620950279959033
-4.867933853150715 -13.644126977380637 -4.647664056554082
-4.932004020040619 -13.689037120818545 -4.662228844222157
-4.993240193536071 -13.733003550567139 -4.6800683436738275
-5.044402370827024 -13.765022187461437 -4.69820583191726
-5.087023400002003 -13.80834094659668 -4.735459023698457
-5.187821574496018 -13.863965708193385 -4.759502848709377
-5.287537349930163 -13.934004691822695 -4.769196740577354
-5.377369584539837 -13.994891712149363 -4.797047833131473
-5.447455733170223 -14.02102347785755 -4.83799023635676
-5.49592890521131 -14.02449921689247 -4.876802976303401
-5.559186414633253 -14.025255061769574 -4.928058822497066
-5.606154823704863 -14.020608349838927 -4.968172581373487
-5.6516430196210194 -14.002915019425345 -5.014382792280112
-5.749163883853306 -13.98492263872166 -5.0920471650083465
-5.779732272631396 -13.939323777711515 -5.136710693948169
-5.8203165123299705 -13.915945749629671 -5.1724694430300175
-5.8709763145825455 -13.856313015341435 -5.226909393628149
-5.906670315660493 -13.80976748356226 -5.261954621884334
-5.95370694497573 -13.777216099277217 -5.294422060839195
-6.019624315851987 -13.751554822260012 -5.326312093453005
-6.08219358434382 -13.735635501372434 -5.350505456201228
-6.144473618459928 -13.729740330919803 -5.3705562871222305
-6.199828799260935 -13.730053695266049 -5.382218281269736
-6.251086705450572 -13.726705424760356 -5.395135799454614
-6.332275445106381 -13.71877102975946 -5.410550576926366
-6.417699912079032 -13.763818143695964 -5.414557244909592
-6.470509748693864 -13.79008308993324 -5.4166739063051175
-6.5666921004543095 -13.830847517826648 -5.421505899618197
-6.643570594577012 -13.860202883632216 -5.4241059359783925
-6.693745444607696 -13.872690566873068 -5.426063855683329
-6.7885221933545505 -13.852626677632419 -5.439289800806883
-6.8819815394263735 -13.846066293337689 -5.447269446672189
-6.960685777191033 -13.849043809213814 -5.450800013353468
-7.0355099759137385 -13.850020506235566 -5.453564956283753
-7.104883070843359 -13.851789509961147 -5.4541645238510625
-7.180980004195412 -13.83070924680925 -5.458707006655783
-7.261770101892166 -13.8022495008934 -5.462143656579059
-7.320527311401724 -13.776857120131817 -5.463908581344857
-7.369889594032356 -13.750488581460976 -5.464982564290541
-7.455034575547458 -13.701266651130192 -5.465524153839949
-7.52384719355584 -13.678869720415522 -5.462114504706669
-7.5996561518724945 -13.657733510932442 -5.457235840425628
-7.657263850557852 -13.656616565418398 -5.4504176461838725
-7.731310436900765 -13.654596351502976 -5.440839799145892
-7.819669345717655 -13.641513947638636 -5.427852659313163
-7.881221536655573 -13.623933416466707 -5.418626920599528
-7.939542826509234 -13.604602514562664 -5.408853103847576
-8.005759157576266 -13.57997855231219 -5.3970207290966705
-8.068925568492515 -13.55091289077947 -5.385113759843895
-8.141971109558082 -13.479528282730172 -5.374014797069983
-8.157979688777361 -13.41946823154342 -5.370953323140352
-8.241200063411826 -13.344315040958717 -5.358968342486865
-8.27888624722937 -13.291623253903829 -5.348841204227637
-8.338631815791523 -13.253015134204762 -5.3342523272257205
-8.386834137272695 -13.221099870708606 -5.321337026150758
-8.429823254428035 -13.189349547140898 -5.3089140215559185
-8.526895628026052 -13.17826073633006 -5.275718450100609
