296
-13.574163208764636 -1.1601913255021 17.08777169020955
-13.576630353751776 -1.1705639423939 17.03805636933849
-13.581130784346994 -1.203775081230144 16.96839417962662
-13.581884788227496 -1.2334883134408725 16.910230544926268
-13.579079926164491 -1.2612822561000243 16.853110071239914
-13.568946201684009 -1.3123161555417882 16.760898993679415
-13.5498216132793 -1.3400369551978084 16.681992114538648
-13.52418335256523 -1.3462858340847976 16.609825271303183
-13.49685716703779 -1.3685141009842674 16.54191832570194
-13.453810481676891 -1.399115403650477 16.451485479823553
-13.412411617926063 -1.4472983951731753 16.37270442682843
-13.37579406680686 -1.4586100539734579 16.315683678362383
-13.326926302250671 -1.4893224390480653 16.241571248569787
-13.262912128721117 -1.5281098264623065 16.155277297269066
-13.21900565018006 -1.5429734541821785 16.100650701740857
-13.160125733246138 -1.5776421594142338 16.02951810664738
-13.111652315873341 -1.592255853385826 15.974750123268425
-13.059673249092254 -1.5934493610002072 15.919854222828073
-13.013613773498976 -1.5916025648297338 15.873192227598286
-12.935666916274416 -1.5826158146880314 15.796968255997598
-12.883966342015162 -1.5467545459187921 15.752699407776223
-12.846102356789418 -1.5635088021713182 15.718130836842633
-12.787101939589176 -1.544285056509302 15.662432307816387
-12.75012706316763 -1.5491502184798915 15.627393049066503
-12.699496512785492 -1.5188331282756322 15.587463082088128
-12.642766457518544 -1.489594954540481 15.542271536541879
-12.573030324811418 -1.4780808600742976 15.482108203748524
-12.497368503613629 -1.48450864524612 15.41213376885219
-12.431074672730881 -1.499298417700884 15.348894190185291
-12.392192640218232 -1.5082250979698002 15.310989302772938
-12.351529027057472 -1.5000494330111924 15.27658372705711
-12.305949571564623 -1.4908008418665253 15.237671874175883
-12.26718662091862 -1.4858038173361838 15.203885688000844
-12.219033812183929 -1.4804182807234683 15.1623909574403
-12.14984608105227 -1.4900903175930513 15.095689929190609
-12.09420869923226 -1.5007879015426373 15.040573587200427
-12.029032785617094 -1.5111341112595453 14.977915859471842
-11.984676574552779 -1.5157650528938007 14.933578761092479
-11.904367216158315 -1.5205629963168483 14.856640567982438
-11.846879616276922 -1.5137783754650262 14.804706452178776
-11.787559916622564 -1.4869244987734884 14.75709993128069
-11.720559924951667 -1.4730576106078122 14.699106414397912
-11.660251171931058 -1.464832538989254 14.645333285169801
-11.603500910957083 -1.4671611583644437 14.591769891389951
-11.551568003856852 -1.463510960437294 14.544651871113272
-11.505671034457587 -1.455251214267039 14.504910333539124
-11.447899673312266 -1.4454136912132733 14.454953864599881
-11.385946688669364 -1.4527664262524145 14.395849719547467
-11.3399262251034 -1.45704042563465 14.352722938165893
-11.259506906306347 -1.4697408569712296 14.275233898598792
-11.189642989772429 -1.4661391677979467 14.215117806843036
-11.13038411620558 -1.4614183993830772 14.164521745696916
-11.076009405943697 -1.4593524185134572 14.117767742805391
-11.01750107041589 -1.4579382441612312 14.067494173095197
-10.974365419391406 -1.4520819799162692 14.032820586511242
-10.911990823598396 -1.4419310923057742 13.984236301743698
-10.8308346880948 -1.4353066607218645 13.919280507436682
-10.761973988650851 -1.4440612382825055 13.860809685646872
-10.694996967314593 -1.4256963013163273 13.814563598317118
-10.623981326774011 -1.4366382781816822 13.756198970327416
-10.554740824254882 -1.4801771112206235 13.689409477974403
-10.518281449685293 -1.4998087372113043 13.655913558018366
-10.481594834352828 -1.5180749943710292 13.62288326389082
-10.435536362765072 -1.5535061395381322 13.577719944246152
-10.370039502835565 -1.5458674369462295 13.536236783244167
-10.307737547675297 -1.5243239628067469 13.503250424071155
-10.243490342213102 -1.5029230649518142 13.470542190601465
-10.161257261481211 -1.4739145296302805 13.431315847192371
-10.096627692240265 -1.468177555041886 13.396619870363127
-10.023799978525014 -1.4701426404883926 13.356498287159244
-9.95100840767882 -1.4539968926109028 13.324834031956044
-9.905505839104356 -1.4443699284767546 13.305645559843681
-9.81069631252776 -1.4498090967685942 13.257813223496171
-9.731005447521069 -1.4610801605335637 13.218026283419377
-9.661875577347567 -1.4693664743453385 13.185545790493434
-9.598645544504569 -1.480182212139183 13.154822627092294
-9.52856769183059 -1.4913266511463914 13.121164776258267
-9.47041154414774 -1.499034039412871 13.095805655209654
-9.406748865744284 -1.5080213302074028 13.0682599448245
-9.343139440648724 -1.5175040331963268 13.041048994144706
-9.270924645200106 -1.531220592710335 13.00982060327735
-9.214897208120654 -1.550373537390212 12.981816612787526
-9.169046283785628 -1.567645773236945 12.957974532805826
-9.088692130097334 -1.5683936073849527 12.932523350950746
-9.023488275461226 -1.5727317167549044 12.910570743604127
-8.959977995402342 -1.5715951622683833 12.892584369099232
-8.903201941833117 -1.565366882586998 12.880182779292804
-8.825364509101552 -1.5627303810012645 12.86030600098908
-8.738313583776367 -1.57803874945819 12.828759700284072
-8.684564068201771 -1.5752920935744925 12.81683045416844
-8.606597500453734 -1.5718877539706968 12.799543383193498
-8.50559304553789 -1.5928881682569926 12.760619700475038
-8.410391196061788 -1.583803061412111 12.74488752948804
-8.356498711742182 -1.5943575287886191 12.7248652468813
-8.273576962720028 -1.6114509684056855 12.694512940316224
-8.188487407024942 -1.609068416335111 12.679059841575938
-8.102892271090008 -1.59370349525701 12.676210337524825
-8.030762294962187 -1.5786262174800605 12.674857597560615
-7.97045513995633 -1.5750618503797467 12.668824120181757
-7.874107694438679 -1.5582812716307883 12.668780083848349
-7.8110048799599685 -1.5506284826648686 12.667325821374108
-7.731522047877403 -1.538773542081467 12.668740922141385
-7.679923007410279 -1.508444577346043 12.679501786024693
-7.621234535044534 -1.4810280909571043 12.692544007339754
-7.561129509118693 -1.4533855532556206 12.704164911999653
-7.493193193645498 -1.425047597214535 12.71648809877819
-7.4399748255576 -1.4043253790255337 12.727049710141506
-7.390698609959475 -1.3901865253059849 12.731192293931217
-7.307115150738706 -1.3649008324795933 12.742392576250612
-7.230694474005787 -1.3431195582409043 12.753049170708493
-7.124041063374884 -1.3442044046705162 12.756357977483482
-7.06245291300238 -1.3462628183670113 12.759108474087864
-6.993618154925544 -1.365683582252157 12.758821726470769
-6.891511743129332 -1.3736774578468967 12.764685304394717
-6.845211837408403 -1.3393801024559262 12.780563685867717
-6.776432297505833 -1.2702615317136323 12.809728242000352
-6.69897518857881 -1.189342000835579 12.844324191610935
-6.632518979180114 -1.1414168256983586 12.868958344662593
-6.538991836957328 -1.0765483844537438 12.912222173785015
-6.48726564672994 -1.055595721051652 12.937054876098582
-6.413294784321177 -1.0498748191397314 12.97726407699102
-6.3556734506666555 -1.047915474305354 13.021232738897098
-6.302099623089761 -1.0515204175478594 13.072302994212517
-6.24850929027931 -1.065518924716682 13.129665982393828
-6.202461340888515 -1.0808037954350072 13.183974654138462
-6.1526297302138815 -1.10081319745183 13.244390838079903
-6.119403350490806 -1.109624476732904 13.291084095614
-6.068305988848596 -1.1163825744511833 13.37345173212561
-6.0370121748188375 -1.1143583015770915 13.432970085410394
-6.019535570633185 -1.112611347769899 13.471854847109322
-5.994489765797534 -1.1101075142873074 13.527582269372743
-5.952955544564388 -1.136943470787082 13.584328394801988
-5.905611172368014 -1.1508522562017054 13.683656409363138
-5.874750901077741 -1.164096271477907 13.751842222624937
-5.8272390192627395 -1.210055504121768 13.839435676209957
-5.807220800280408 -1.230520203048963 13.883965163776645
-5.78600211393961 -1.254101670202286 13.928503067153962
-5.760686101598205 -1.2820581473548112 14.00113782799126
-5.7433245606581735 -1.3042788135197299 14.06345008447594
-5.727668419908895 -1.3336960564470517 14.105403455489
-5.714366705111974 -1.362505901104263 14.147646400982332
-5.704394386492147 -1.3865202268755417 14.191614814832457
-5.697105339401304 -1.411464911789295 14.237418063650036
-5.6859509617656006 -1.4604680897002915 14.309358254392821
-5.6792138397363345 -1.4976998116120694 14.349287745012848
-5.679403917385125 -1.5486638528110335 14.430005817898245
-5.681940532599683 -1.5840399725817451 14.479853996704863
-5.689683982304867 -1.6169675962584866 14.547492172952605
-5.698048833288366 -1.6431370105363978 14.60169825503417
-5.709047933746284 -1.6625745394520046 14.655631928553664
-5.722839378728818 -1.6838623913521882 14.720031476977088
-5.758038576800516 -1.7250866645461473 14.852907389147862
-5.778620613435358 -1.7776862150034813 14.933453081179303
-5.804768153367256 -1.8248104790983262 15.020981565218433
-5.8348403552269 -1.8688165856783727 15.112762101154225
-5.855019065220894 -1.893314004952646 15.167978110195271
-5.875507271342027 -1.9040587859781406 15.221137792887891
-5.889371701938234 -1.913866767271317 15.256853127280843
-5.900967843219128 -1.9285076741908669 15.285897581991357
-5.923414106449423 -1.9554305085234032 15.339555507797987
-5.9415695944971105 -1.9747537503360353 15.383265669909697
-5.973610184171088 -2.0046338077824837 15.455746575496796
-5.998853915617026 -2.029466098115343 15.510781633233895
-6.038979042717145 -2.0585607060297866 15.592533691042245
-6.062780444259751 -2.0709868475579336 15.639301165613654
-6.087221622857248 -2.081782973100231 15.686014668959439
-6.138375371110913 -2.0798554050423705 15.781000973963433
-6.1738595305986355 -2.0769374824232836 15.844509156642616
-6.220971709232735 -2.078548515841417 15.924043276178566
-6.257829767848383 -2.0804528873517993 15.982385013143793
-6.2958875531502905 -2.0836777099510777 16.039114933377487
-6.337748905834493 -2.089260622236049 16.10060701880221
-6.397517026429849 -2.1099150313666795 16.178803145825505
-6.436700375061031 -2.1354533426562132 16.225089559150963
-6.481096655137927 -2.166635812312372 16.27388811388857
-6.5604720578030715 -2.227750543170622 16.354862935870962
-6.632913176864474 -2.2538851026953712 16.42404764901152
-6.680515012872938 -2.262354810374074 16.467394460994324
-6.745756440007831 -2.244618950549222 16.524735111541496
-6.794116756577534 -2.2300789851951324 16.565361700044004
-6.8561817816038 -2.2059869590279857 16.61388666635211
-6.918093640994268 -2.1921845549479624 16.659968142902482
-6.994116216568367 -2.1728663798609866 16.71443166317716
-7.048095957634599 -2.160229068694302 16.751651677046272
-7.107203258707214 -2.1503812530676303 16.79098392794239
-7.184365736576902 -2.137971260148026 16.841794056648524
-7.244892954873222 -2.124292456494597 16.87997978080927
-7.3055239708482524 -2.1085253263030928 16.91785469541527
-7.379956078023364 -2.0735501902639397 16.961150725993555
-7.466426277919188 -2.029884591242391 17.00990004205376
-7.516187814099576 -2.011099636254656 17.037870180058587
-7.578011210795797 -1.9897293754507344 17.072123095820544
-7.638160842352505 -1.9901095744093946 17.10824347030951
-7.68941411403271 -1.9810639843282611 17.137381339292475
-7.743809269335996 -1.9730814086102733 17.169212470809796
-7.816257993875215 -1.9723434069541619 17.213004545857245
-7.903409272244716 -1.9693006698065385 17.26502023466819
-7.9459158724416135 -1.981632796187024 17.294035196489954
-7.9875367062988385 -2.0015819935506367 17.323272346000287
-8.034434502911198 -2.0263625473084645 17.357470274694283
-8.077415766332917 -2.02789513460583 17.385011778215688
-8.160107517477028 -2.01053291406488 17.43594134207408
-8.208019448098991 -1.998014818725569 17.46411025536551
-8.260744945517585 -1.9665102801001213 17.494244373017573
-8.325702013298281 -1.9393003751900497 17.534063902665743
-8.395344663726139 -1.92042984414137 17.579794935071956
-8.445107034993866 -1.8926378842723923 17.61205540916757
-8.485878634610811 -1.8844939969014858 17.641830524706325
-8.533426240980178 -1.8757158767159194 17.677197162834265
-8.611055689521152 -1.8411669206963215 17.734283314144776
-8.686254846981733 -1.7874423013132088 17.792459962379773
-8.737222491572037 -1.7547191744360853 17.833531954783535
-8.803420140034346 -1.7256982794380789 17.889341712849326
-8.848980407032261 -1.7049683544320964 17.92799163475416
-8.901445971228023 -1.6901311981633937 17.973274736102052
-8.942672357842728 -1.6742994056897793 18.008815533562945
-8.99100291915938 -1.6536880066338961 18.05007350611342
-9.05078338591714 -1.642003834413936 18.101502697789883
-9.115814367588456 -1.6229798847678263 18.153907701120808
-9.193678776435489 -1.6442150310557164 18.21543763236729
-9.26250243173042 -1.676390342663784 18.265988823453654
-9.305864509228714 -1.6838203855240195 18.297192140286008
-9.373042835915786 -1.6515244549006822 18.34222141319907
-9.451153218032163 -1.6468854430427249 18.388632423297288
-9.502522598943717 -1.6803460463483582 18.4184606949448
-9.596590963998162 -1.6565328245468527 18.475286489999377
-9.645904952974696 -1.6449458193967474 18.501900876948422
-9.748803870089072 -1.639614392108598 18.552275838201087
-9.805295847290749 -1.62981020435098 18.57983372411548
-9.860339730806933 -1.62638225539534 18.606161295876422
-9.909574818103986 -1.615816108316682 18.629818253089102
-9.96914109950701 -1.6136458754589293 18.65763821987513
-10.03382155417451 -1.582051217160108 18.688689922179698
-10.093774969513964 -1.5608261268291663 18.71674245024119
-10.175788822411963 -1.5370040801467995 18.754415383896553
-10.266086741844054 -1.517814465212506 18.79464421181553
-10.342253271225653 -1.4815601644423664 18.829615902412737
-10.407506995576108 -1.4789586092886708 18.855200937576384
-10.492338261955533 -1.4397516681433329 18.892722639208692
-10.576834330633778 -1.398764049273792 18.92795641712353
-10.630394036421302 -1.3538024921876035 18.950527283707686
-10.70745114874764 -1.3186779555201449 18.98112849485015
-10.788272957609816 -1.2585468450273802 19.013115087424616
-10.86448861742683 -1.2151120160227156 19.04188751766719
-10.927886437739058 -1.2099092657110444 19.063425970756683
-11.007913317039753 -1.2075419003734749 19.08983414674816
-11.062443413135819 -1.2057888088585444 19.10715634455418
-11.128664060730456 -1.2026081132161832 19.12726354692933
-11.193674430127967 -1.1942207787689099 19.146012155156757
-11.257246975893947 -1.1820464437582483 19.163421056402246
-11.319826393291805 -1.1651655272503423 19.179967026406715
-11.384236385745837 -1.1477856399889954 19.195010866770044
-11.45616523239856 -1.1354782756552149 19.210112632974095
-11.562429294158912 -1.1268795679874062 19.228450427069383
-11.619755505919915 -1.1200796456934081 19.236103167534345
-11.723206290534812 -1.1035602069226325 19.2446718346048
-11.792487344966437 -1.0902274826800604 19.246256713288545
-11.84894010995095 -1.068351350697732 19.24457422381229
-11.928591220143938 -1.0707658009845524 19.23980493035171
-11.980916485561766 -1.0500715111549803 19.232833701296006
-12.043162369370686 -1.042857553527039 19.222847339397333
-12.133482101953312 -0.9979935829055409 19.200977732193405
-12.213946697174062 -0.9616674139317731 19.17454080626827
-12.27151907714571 -0.9319041063889895 19.152872325688467
-12.329113652526202 -0.9309594531473122 19.13114922138728
-12.386222867205994 -0.9078748759958868 19.10387839993446
-12.454429692643297 -0.8948255277203885 19.070131224073375
-12.545236291705272 -0.8588530149498634 19.014786023948506
-12.599317662591144 -0.8538715843875495 18.98159698123892
-12.653472760134358 -0.8652300971769225 18.949897717145138
-12.720220142940201 -0.8579883376862814 18.90213577398885
-12.78898767554079 -0.8620604173603719 18.85076121554104
-12.854083581341603 -0.8561412253600758 18.79633389176986
-12.919823450076771 -0.8484500803591843 18.73577611234695
-12.999849644682486 -0.8612986627705161 18.662298239033056
-13.063217158543706 -0.8638749518825717 18.59466283918139
-13.112229685730147 -0.8693893170660942 18.534377567156998
-13.158618581502383 -0.8757072729604378 18.46960544043503
-13.195222829752181 -0.88732169291811 18.414682928997518
-13.227497849260539 -0.9011118407784933 18.360917413712855
-13.274272127064686 -0.9197358626133654 18.2726131451692
-13.303748405182175 -0.9313158127693753 18.214226149795707
-13.336332674130416 -0.9422335617808366 18.130728787772107
-13.363612721120072 -0.9509384264478804 18.057415399162785
-13.387435968606583 -0.9625803437453848 17.98987250227876
-13.41162671484715 -0.9804484771783031 17.918621706117385
-13.431835282448903 -0.995947273343339 17.85458905591908
-13.448356540524761 -1.0090996444622908 17.79746367846123
-13.468682161169147 -1.0257172886178865 17.72157866670581
-13.485802835684135 -1.0448515439041477 17.656653319821213
-13.498875463646373 -1.0598914667224768 17.603869323237628
-13.514388653787021 -1.0760584785094531 17.52903897626652
-13.532961714215412 -1.0985256910201822 17.435902366616986
-13.547747209712503 -1.1163288281812744 17.346221553008693
-13.556062721887868 -1.1243811893034552 17.273380511490906
-13.566684772968697 -1.1418202686824066 17.179189010911532
