333
-19.058181439316662 2.954743665148425 20.7672373046644
-19.113807495554582 3.0202299453007635 20.728368479965283
-19.15284074575674 3.0584528049276196 20.703605898201502
-19.189882159537703 3.093571740355288 20.6794936701828
-19.243129791590327 3.1391129934499817 20.646561402829494
-19.29362166114038 3.178659382311026 20.61448508184874
-19.334415454270022 3.2097194969448575 20.587091454214082
-19.38815809627511 3.2457460813993935 20.548428760576734
-19.457375585191738 3.289938009135631 20.49052321611235
-19.52507225192178 3.322714870739053 20.427250552064635
-19.56540236306729 3.3407456974786696 20.384508849256704
-19.602586897151273 3.3575600603443627 20.338865985691747
-19.640558833885894 3.37381910862901 20.28923804833352
-19.68172063387266 3.388307570846181 20.234134254352504
-19.737673717524732 3.4049987952101324 20.157312794514908
-19.766785993249165 3.41795643439188 20.11065268736948
-19.80570093746154 3.4363447191851426 20.046156736126264
-19.85650199697587 3.4485188670424067 19.971924940149165
-19.894026898567375 3.455146194771136 19.91783734251365
-19.932058329159382 3.4611966795644813 19.861038221253217
-19.9680863591483 3.46915512423399 19.80197035597472
-20.003454241488342 3.4766592103012544 19.74110692871532
-20.040679133443835 3.4803444391594143 19.679909236160988
-20.07894596313514 3.4796053285742827 19.61838933172691
-20.119187263380166 3.4739156998328697 19.55661844483484
-20.156149883656127 3.4681458520668373 19.494539412144135
-20.189743936825927 3.4621511174939608 19.433693030756274
-20.227523355549742 3.4493447335068455 19.366971251051872
-20.25874155678769 3.4383851646943766 19.302080398778557
-20.28718040597877 3.4256398149334517 19.23810089869255
-20.313100297230932 3.410365202572142 19.17339974057613
-20.335166946646442 3.3928094605508425 19.109337786836527
-20.357371758592098 3.368359503805295 19.022987530685995
-20.370134903251557 3.345157541728109 18.95306349073436
-20.380512642853233 3.3152860777238056 18.88157635872421
-20.389151944647587 3.2746323956701326 18.7959732270561
-20.3886576642979 3.2419011152210215 18.72009868562565
-20.38802278603764 3.2156306007982147 18.66861577172886
-20.390375620098254 3.1790245102315433 18.613071607084375
-20.393708251662957 3.1369743790122007 18.558495333572026
-20.39541245872285 3.095275666773504 18.505046379153463
-20.396452388574033 3.0510104393238224 18.451674257198135
-20.396504187534614 3.0054331332750133 18.39816041379322
-20.3945973399048 2.9588267685583363 18.344471117822287
-20.390774115388915 2.9125379586843474 18.29030879030286
-20.385455481148995 2.8654205099679766 18.236121111753892
-20.377955659388768 2.8191816996497083 18.18147340358967
-20.370381315919516 2.7849790312262774 18.14077490460896
-20.357932792077083 2.7187717569493275 18.06723692418592
-20.34854144228517 2.6689007160818727 18.013927162277497
-20.336583187383603 2.607729436547145 17.951140528394752
-20.326004231646067 2.568142042759175 17.908942068568784
-20.310574791925937 2.5199199371982717 17.85534484214954
-20.294522908570343 2.4736456788553136 17.80406767383038
-20.276678275384832 2.423401440913982 17.749591669779235
-20.257358040291003 2.3826521069149953 17.701473810010214
-20.234052480995523 2.3414788737323304 17.649933141871486
-20.210149322607684 2.3009621547644388 17.599404924119412
-20.185551175534695 2.2613892983725767 17.550359363418412
-20.151286734277768 2.2162139097088707 17.48958696657703
-20.114131684250886 2.149496880559707 17.417243964669957
-20.08419575566288 2.115365013255599 17.370679668212986
-20.044370906316676 2.0677723261588374 17.30931926911697
-19.989662443680984 2.003087433107079 17.229359604248575
-19.95445519647305 1.9666830136792024 17.182184528690605
-19.922576791155684 1.9344470377570007 17.139786011571488
-19.88004299630459 1.9004596586101874 17.08875464782892
-19.838826888694072 1.8714113718845171 17.041603954669817
-19.79719601688107 1.8417177036704278 16.995053362474046
-19.744937550267075 1.8012826016763013 16.937574594837976
-19.716089478767472 1.7742890441530674 16.905778857019506
-19.68915965000085 1.7493639162634258 16.877205021857876
-19.656609564365752 1.7192365383405033 16.842667034591038
-19.608043575899163 1.6752430019115527 16.79309478515102
-19.565676812223092 1.63466775512176 16.751533989042716
-19.52536294539885 1.5951277342703003 16.71401607648817
-19.480338994214698 1.5561027752290473 16.674270185724573
-19.436287864541853 1.5182680857902335 16.636912231144414
-19.387818991119367 1.4852455347064577 16.598400089312165
-19.33778969325604 1.4537893141766336 16.560599260602228
-19.285402800965954 1.4263640862156732 16.52306477082977
-19.23048688697931 1.3999469934399764 16.485403226787888
-19.17256705272698 1.3854039668015146 16.447997550960572
-19.107912998159357 1.3689538518913507 16.40764254758342
-19.055013649035423 1.3540790123721553 16.3761023039578
-19.0017327472632 1.3365304972182006 16.346549872296062
-18.9545686773694 1.3233088343277446 16.322154361717768
-18.86642492830002 1.309089117722153 16.278800690881425
-18.819564867473865 1.3034225216733937 16.257561590184213
-18.756387287395555 1.3055844080477028 16.227562875438544
-18.679812431818274 1.2881641079517285 16.196636699237303
-18.617896094671625 1.28246567945797 16.171539877789566
-18.546055497487856 1.2842081695497152 16.142997727211608
-18.47710081321785 1.2808983574501154 16.117124747600347
-18.419281458923695 1.275878582481183 16.09663933982663
-18.324939045397212 1.2772782328781842 16.062720879961315
-18.247964087881602 1.2759612266227043 16.036877236876336
-18.185982670452262 1.2710290857970081 16.0168080713414
-18.130351655276982 1.2579471978704566 16.00106623225981
-18.05547696586394 1.2389122586495658 15.980868184519249
-17.993947400462456 1.2152272492986915 15.966583923422785
-17.937990475129645 1.1919205042273004 15.95417539779535
-17.873421226094912 1.1682287079608562 15.940022266288716
-17.819843454150963 1.1397036438719583 15.930106605755139
-17.732111452169242 1.0917122342289654 15.915138904262102
-17.63338871348667 1.056836134949024 15.895443741774109
-17.58301748941348 1.0367061643557323 15.885576124362721
-17.524201601804467 1.0199979087228135 15.873754655677287
-17.450064987121532 0.9994456561455909 15.85735707285112
-17.389952596147996 0.9936492213815873 15.842730935849108
-17.29168344778586 0.9896571362301207 15.816779537560326
-17.182925923510414 0.9857686039964877 15.787440474305662
-17.092765507910755 0.974439045864055 15.7644207537119
-17.002780293856027 0.9598254319133437 15.740888234423721
-16.907550224865954 0.936790420564539 15.717511221939208
-16.837531891526144 0.9303773360536054 15.693624847760812
-16.770236393789425 0.9214775494572551 15.672496134738093
-16.719302315655195 0.9145462768828487 15.656068921004337
-16.671573448082178 0.9095107273146112 15.640118964644822
-16.630011002694452 0.905255395211344 15.626189228510572
-16.595949933287212 0.9017683557946858 15.614774888353281
-16.52968587723138 0.8989313836249311 15.591412818351213
-16.4570877160202 0.9023449219485773 15.56749683690784
-16.40584420044001 0.9048610685399403 15.552579529247037
-16.320189911523226 0.9169011725625387 15.531460529899373
-16.276774977222296 0.9277799787617189 15.523628142802503
-16.235907934228877 0.9380201628082814 15.516254012265314
-16.141634015311055 0.9613314358101288 15.507496654251437
-16.069329779708095 0.9825766533808649 15.504416080065502
-16.01480704867933 0.9967769278153122 15.503013327910448
-15.965943407213215 1.0073241725022948 15.505372541935035
-15.89675711097888 1.029066512918381 15.507424148982127
-15.818366939628174 1.0495531835391896 15.512286817605201
-15.763275878703165 1.0568991135993544 15.51794309328142
-15.69427315084611 1.064562159181495 15.52579871251572
-15.6077291658146 1.0848025900538074 15.538557400390353
-15.524930668257914 1.1065953647491371 15.552323227284731
-15.444715059162721 1.106861575062239 15.569894473785476
-15.367818996258556 1.094151325165746 15.58984921698691
-15.300022452977064 1.0905854210207968 15.60905098928204
-15.247841401678734 1.0904579756385004 15.62480764916841
-15.184640635556718 1.076914148733798 15.645874148083838
-15.131553021358629 1.0629770020274307 15.665670434183081
-15.062561229542823 1.0629561442561029 15.69368652720419
-14.99462087221857 1.0583782330659455 15.724011725600496
-14.918445134846849 1.0635898969753654 15.762829985954296
-14.84000565461737 1.0643721217081863 15.807887557250645
-14.762650924453778 1.0581959873774212 15.859141931813195
-14.708431912862528 1.0515688877201184 15.897625210596
-14.657862130408702 1.041943409706481 15.935442853556669
-14.60584623097362 1.0335353049747953 15.976095514883664
-14.553868816825798 1.023071202554477 16.019066761676854
-14.50173131750053 1.0117855141681806 16.063486779231482
-14.45320041372693 0.9999546524317111 16.10634195412467
-14.379328756668613 0.9629212706490229 16.175726502485926
-14.31902537707985 0.9348135302035967 16.234822242671815
-14.26962968608845 0.9171815582294647 16.284613134394974
-14.222602160855692 0.9027844572493571 16.334054977899132
-14.171679507537489 0.8896504251308803 16.387961233445814
-14.133717534125662 0.8798227891031836 16.429464788492403
-14.079146320538191 0.8576988413361457 16.49286743165149
-14.03700122979631 0.8370474702639115 16.54348818694036
-13.993825558063675 0.8163756630685421 16.596105913443665
-13.95439362375126 0.7949822623438312 16.647235432992325
-13.917863604662946 0.7715357109343381 16.696670766095288
-13.88556382914092 0.7494170417878303 16.74266149243259
-13.850150491539523 0.7264171257290721 16.794880508849246
-13.818728826550718 0.7071112860627418 16.842887785844262
-13.773501993891347 0.6779408642479616 16.916776500421758
-13.73282413736187 0.6320031858986814 16.990652213344074
-13.712167303247998 0.6052536327833407 17.02991539263684
-13.684155103451356 0.5674538424637978 17.085858023485244
-13.667396018066437 0.5324834992096257 17.1249111003439
-13.649778725670421 0.4906844205097398 17.170613002457184
-13.63436940041331 0.4510586147684412 17.215870147215718
-13.619505298574987 0.41337874801492536 17.262666135441478
-13.606491676727495 0.3769387743569599 17.309784493775048
-13.595508743892234 0.33751228360942864 17.358778724984976
-13.58761592978698 0.29543086082172376 17.407688762019845
-13.58417376982078 0.2399775934037498 17.46778676111204
-13.58397557523843 0.2017280768916203 17.509140790143697
-13.586384648970155 0.1544571702320754 17.56073045081767
-13.58757078130744 0.10936871307439322 17.621101049824784
-13.589044742117162 0.0722630712198109 17.68312012315376
-13.590779760193325 0.03892980133277657 17.74871534253385
-13.5922388682334 0.019216704777422322 17.79478057146318
-13.594571795395286 -0.0015369199464139172 17.8447151384686
-13.597576118489437 -0.0208543305733766 17.892434387367405
-13.600733681055738 -0.039068731500633724 17.94794023817831
-13.605867711500256 -0.06186904048297759 18.026853714266537
-13.615810388882386 -0.09629735883147195 18.121947700618364
-13.630239709109361 -0.13484179103226612 18.208808974650236
-13.638944486437449 -0.15699506624096227 18.2661299142498
-13.646115676806831 -0.17465195184382143 18.31383580136613
-13.654483602889353 -0.19305099894821431 18.387828323620433
-13.662438870593935 -0.20967613925176387 18.437660725463047
-13.678342309486961 -0.24135040334238322 18.511749905788996
-13.69527502423175 -0.2736345780248106 18.578118705033155
-13.71118830723812 -0.3033013688348456 18.635245632768445
-13.73001620201492 -0.33686465608967087 18.697272374923728
-13.750367723189441 -0.3712460933909103 18.758796994369952
-13.771446216896216 -0.40656837158732895 18.825570297092632
-13.786388764509109 -0.42909182586009553 18.87085624550982
-13.800757327366737 -0.4507474102633271 18.914400318369463
-13.84673607082011 -0.515297970775717 19.04978975486447
-13.873059802462915 -0.5520072510033183 19.115643028899495
-13.907103574966662 -0.5963553172268536 19.197188501609652
-13.94483092767735 -0.6437522653421981 19.276173112597597
-13.992611096046458 -0.6995102672080238 19.373903570164046
-14.005890825809344 -0.714645358704769 19.399291950797576
-14.034222227212076 -0.7454002058394007 19.452533467428722
-14.060751840967482 -0.7715166102555155 19.502518112269485
-14.095907237613957 -0.8022687465810536 19.572255753615345
-14.126370890613119 -0.8278873165333085 19.629356979279287
-14.151931563712767 -0.8495742141090128 19.67185782125967
-14.1963615625007 -0.8897380625798172 19.731827149582728
-14.240020797131926 -0.9280136700554937 19.784119305341072
-14.273031878624437 -0.9543304114139453 19.824334432026333
-14.315744226598133 -0.9857225357263264 19.873905853559137
-14.375072138523949 -1.0343703333971712 19.924340294705782
-14.430071045889784 -1.0668654371600352 19.984198318293934
-14.472736253606058 -1.097806916556884 20.01776893215659
-14.508379409802908 -1.1180506840451594 20.050715281326497
-14.55920823575691 -1.1416866904096112 20.101610642874796
-14.606601100573997 -1.1644401020503405 20.14486006789352
-14.657314015467874 -1.1908912431418335 20.18505282475363
-14.71146821985204 -1.2151860617255865 20.22968210436719
-14.759839688796275 -1.2366542786660508 20.26797677813156
-14.80807723270431 -1.2615997570601616 20.30013162210377
-14.874289236418257 -1.2998683494880598 20.338625297601723
-14.914106928279981 -1.3235879702451374 20.359939788175502
-14.973089952125576 -1.3534949542477532 20.395132833402172
-15.035231245693419 -1.385558425379223 20.43033131305727
-15.076769373902229 -1.4152636362671531 20.445997067830923
-15.143390117484175 -1.4433390725225044 20.486869879809475
-15.19530645406556 -1.4701846797154063 20.513076892692055
-15.236636678342089 -1.4925486673573527 20.532940059087572
-15.278495832234686 -1.516228477299693 20.55189324016539
-15.320856173768385 -1.5410567865457336 20.570053087099296
-15.362290336015004 -1.5655955868609883 20.587465212201714
-15.4064647801768 -1.593738311452089 20.604269424940746
-15.450328929982003 -1.6237764011477198 20.619215266733285
-15.49165175715219 -1.64652815309881 20.63747317397666
-15.553842815947437 -1.679770924588122 20.66492732296485
-15.63087923555442 -1.7185476626062313 20.699545435577342
-15.705276166183586 -1.7486011046255197 20.736423230293635
-15.750300666918495 -1.7677675706558915 20.75889283324826
-15.811106738684503 -1.8066935514643454 20.779071919475026
-15.913406166590804 -1.822042550916227 20.84657347640369
-15.992389570267347 -1.878301218747259 20.870247554776828
-16.07095999052371 -1.9159253770064701 20.906993497695264
-16.11837258233302 -1.9156964477744083 20.94153543562917
-16.16140760830537 -1.9175958787047058 20.969609335838133
-16.236167984283522 -1.9188304166006764 21.018835139549445
-16.309080137393877 -1.9178806525289058 21.065866845776657
-16.379840711575167 -1.9169658326117194 21.108934333227367
-16.47679358103594 -1.923311063552271 21.160370598759066
-16.533817846609505 -1.912403135276576 21.191747969679987
-16.568115492975746 -1.904635910261205 21.209460816006967
-16.67098253240445 -1.8976351555038518 21.25366107195336
-16.72853981375968 -1.8625120249164784 21.282875650183094
-16.764052488649956 -1.8097475765762123 21.304930720204034
-16.7908299354797 -1.7663755320949264 21.321390563913845
-16.831091641958572 -1.705882691569851 21.344915328194602
-16.857904553738514 -1.6481991241840834 21.362718603945723
-16.885514066277352 -1.553255086056173 21.38846811224319
-16.92757917610741 -1.4414670242138365 21.42602523003555
-16.94424383507886 -1.3783382779516726 21.445035906526712
-16.967700922912428 -1.31378599818298 21.465033215471983
-16.988105259293178 -1.2588378551040433 21.481042531428116
-17.01807849915553 -1.1928960185046318 21.498669409893676
-17.03534846452691 -1.1451893280128154 21.509828184138364
-17.056184878940694 -1.0816119762294845 21.522338953370866
-17.10142655070055 -0.9959176905853511 21.536800217001797
-17.13010845176431 -0.9119551810343323 21.54780655600187
-17.164294723518342 -0.8184571151004114 21.55700896099449
-17.20591582912893 -0.7303865548028403 21.562009198221784
-17.24489805715817 -0.6534495847630115 21.564384123742812
-17.301329262243122 -0.5583596300170557 21.563455372838057
-17.34252550671561 -0.46675200627111035 21.564251021851465
-17.378494095044207 -0.398818930308094 21.563357982188514
-17.4137754735249 -0.3369125923990781 21.56160273998375
-17.4716536351723 -0.26961549556646247 21.55622738751908
-17.507182703475024 -0.18850218352718962 21.554326298092718
-17.532127884678573 -0.12718481101279178 21.55353107175813
-17.562167428436194 -0.07737035867589981 21.5506765853902
-17.607125513550095 -0.007887506741543149 21.54574137645435
-17.642920483217935 0.04432982850116929 21.540761452287335
-17.681122312201502 0.10269360374899428 21.53634636166641
-17.713939846718265 0.155089462583633 21.531550658663512
-17.753041163978633 0.21781839658997715 21.52635853572538
-17.783896547593365 0.2769703871206719 21.522465972317654
-17.799354252495903 0.3078147921562042 21.519923150847532
-17.82016456155144 0.3493415011846528 21.516500528894028
-17.85198999323302 0.4169217458170511 21.510588014438035
-17.883243475563592 0.4802579776267759 21.50466273452917
-17.905555318079998 0.5252034726205368 21.500232847994567
-17.934379496941702 0.5867632724547853 21.493382323703358
-17.968214618133 0.6557639859866287 21.486093312353646
-17.999362957184964 0.7207741381855213 21.478154879757625
-18.04223621528013 0.8116093471007888 21.46539723716962
-18.062832384198945 0.9003315737525952 21.45731062103943
-18.07750561397825 0.9699949965781318 21.449951713692066
-18.090283469562667 1.0289640797338917 21.443125532150688
-18.11207781747593 1.1033384037668954 21.431859169773123
-18.130382302837127 1.1680327705004547 21.421641339634537
-18.144778094931137 1.232278210180012 21.410888227720328
-18.15501795001971 1.298259717864597 21.400222964077734
-18.161509930281532 1.3433800661322133 21.392180452100824
-18.16962930634252 1.3998083670840034 21.382120723569336
-18.18836177425706 1.502972284633974 21.36003320214924
-18.203877341072896 1.5709052334145275 21.344154130045645
-18.234954095632062 1.6350516694482549 21.324765396874817
-18.268645087063916 1.6976581119986642 21.304618629906514
-18.30090000582117 1.7611032655699708 21.28394551611248
-18.337239389958068 1.8334522002864562 21.25988459896668
-18.367264375648666 1.8877294122471389 21.240813181953147
-18.39876298874433 1.9417990309878874 21.220814739196364
-18.46090266138287 2.023394289864463 21.18739431762745
-18.50986661014816 2.065400537010274 21.165620024797413
-18.561816736036935 2.1160918262474633 21.142037735948747
-18.631841110128132 2.1951279611209413 21.105772480328973
-18.675942031660096 2.249240894371609 21.08103060975015
-18.710233559092075 2.321877626063686 21.05358532466505
-18.741878618495484 2.3750849893177177 21.031161007618593
-18.777743522012084 2.434324821350587 21.00584726302541
-18.810154971690988 2.4888385447172867 20.98222110198083
-18.839593431004356 2.5436157159412334 20.958857177653975
-18.862495873224415 2.592266857852475 20.93880600517516
-18.89174863277702 2.692132298430818 20.89863557528687
-18.95869537962385 2.79345217033113 20.849294353094646
-18.989492324364377 2.8582132642711686 20.81912619160928
-19.01392623490347 2.900511032276756 20.797989593196057
