462
2.5099836531105595 -6.152017201134241 -10.127502739070717
2.4762473501826765 -6.1872302435365185 -10.112047905209746
2.4443016100622232 -6.2248691115018 -10.09838367287293
2.411671304324485 -6.26528919578811 -10.087170333483055
2.360702803552104 -6.330264560123533 -10.072314694945646
2.2838306520541183 -6.409610772418075 -10.057654711810542
2.204309895013833 -6.459868590462429 -10.04445729673013
2.15059984044698 -6.521103735447101 -10.033876686940783
2.108547563805735 -6.5656437986016325 -10.020783423668302
2.051172392040092 -6.577675710009741 -10.006548582618784
1.971949801949588 -6.6205469456202595 -9.975460088817751
1.9279843962136125 -6.644040415591421 -9.956719232178703
1.8682682214159927 -6.683135285018757 -9.929443898143916
1.8019028735597153 -6.716522042306514 -9.900627001973074
1.7179216328036135 -6.736165791431451 -9.868821694969952
1.617613695052584 -6.76056147985548 -9.830047484638321
1.5570955445345342 -6.780407808566939 -9.804416953299327
1.5138795768729167 -6.803594354770048 -9.782680616850534
1.4126949593292908 -6.8379351085778435 -9.733869409367198
1.3549560187290925 -6.867878704627337 -9.699729974118274
1.287935438966798 -6.897188333952471 -9.659118627874378
1.2173012594477877 -6.922604191319451 -9.612871488917204
1.1806272063556165 -6.956261613404692 -9.580499200607534
1.1202325816709928 -6.9688025564774225 -9.54184760356069
1.0543807010267159 -6.997387149245771 -9.488517058005407
1.0065112821321627 -7.0084046745404525 -9.452592383514688
0.936114206278587 -6.986822944178682 -9.419638078387365
0.8841790174799131 -6.965717747868926 -9.397195766855098
0.8343737784899243 -6.948941004400357 -9.372062343562149
0.7633733911313882 -6.928365380766045 -9.329555094155577
0.6935475200178001 -6.910308612198367 -9.281079064628322
0.6116525443348353 -6.892159222873648 -9.216664467074487
0.5525383503996952 -6.873449835366204 -9.170732293580006
0.5037719497077848 -6.858276162518582 -9.13051820822961
0.458725160966031 -6.858471850743259 -9.083143057957543
0.4131066859490886 -6.8604793252792895 -9.031707213758612
0.3676997757564795 -6.867018020002542 -8.977885848218438
0.32416458822490224 -6.879918056266815 -8.92029958246096
0.2659342891450427 -6.896595637862727 -8.843464788718052
0.20108528756829802 -6.921948705852941 -8.752840737080284
0.16362337631635526 -6.92890231924712 -8.703978338726717
0.11689337899213381 -6.937753138183808 -8.644296461579028
0.07028681317005603 -6.94457157500434 -8.586037624686089
0.03908332975070561 -6.949447457352923 -8.547058253466925
0.008048683592790873 -6.954986316181488 -8.508022740849409
-0.04170921219640089 -6.962779346018265 -8.446620834961152
-0.10408173570886348 -6.982859056489007 -8.364015648237224
-0.14092733976636396 -6.996250300245276 -8.313874456980763
-0.17938030159389307 -7.015143402450368 -8.261786681321652
-0.2238968238580581 -7.043024315025164 -8.19837681063725
-0.2634211702024052 -7.0703415599841595 -8.141071474492762
-0.29648519654906647 -7.099795878175325 -8.091577985589357
-0.33602695885181166 -7.148647275472225 -8.025988968882881
-0.37298652125705445 -7.184770477682095 -7.972847377902023
-0.42604662584425856 -7.236199284732068 -7.901860237521057
-0.4742286745987254 -7.264764786402285 -7.851499378908373
-0.5191255254369649 -7.279024706051931 -7.807867377005413
-0.5911015886332933 -7.299939266561003 -7.740621957013766
-0.6774119595064017 -7.306341719276432 -7.6670333904697605
-0.7229679202169974 -7.304243026416719 -7.63032324353714
-0.7909413671240095 -7.312878135051449 -7.571529727087738
-0.8381860139570865 -7.313547819550417 -7.533524427264791
-0.9004604729858645 -7.313422669987794 -7.4837196834661475
-0.9701077080464486 -7.333372659149289 -7.426288229306752
-1.0216734129557263 -7.339579270985402 -7.3879460064593525
-1.0893326515308397 -7.333775808576947 -7.343902598899116
-1.1461659081950892 -7.328216513511094 -7.3088108868719095
-1.1972835798737673 -7.325147581459557 -7.278685826330304
-1.2509250909308367 -7.327926791135415 -7.2481296186584006
-1.3179337607498804 -7.338746613307498 -7.212347975278946
-1.377824905676488 -7.34690347369509 -7.183447009775661
-1.4236364097680312 -7.352600560872242 -7.162956823625962
-1.4590944609550145 -7.366316034852309 -7.1482728589912155
-1.5424244698965723 -7.371770557244593 -7.1185570353674565
-1.6085313896526725 -7.368138999064481 -7.099331820609957
-1.6588521033200312 -7.368098958353215 -7.0861815666810495
-1.7251197749939893 -7.360891883159022 -7.0709428868172965
-1.780829969379154 -7.3611291531579255 -7.060506174394363
-1.8628008002782774 -7.354231076777635 -7.0487890418596235
-1.9385910954004424 -7.340992159506536 -7.040103456871043
-1.996331901574305 -7.3290381346609585 -7.036021293898899
-2.04902697780589 -7.317366676506447 -7.032751695723099
-2.12353501315196 -7.302861821784587 -7.0286579333893355
-2.2026327990737857 -7.286701663824056 -7.025651342656087
-2.2768844658479135 -7.268817342516334 -7.024258223598394
-2.344508080219347 -7.253732424413764 -7.024031635445373
-2.4097651743407513 -7.241376651637603 -7.023118098447498
-2.4815623241155382 -7.234055809992126 -7.02299471317797
-2.538253473874091 -7.231320801283395 -7.023114266602497
-2.618517647441097 -7.241492762985983 -7.023709217921385
-2.688572129228603 -7.2456916106503915 -7.025742471287056
-2.7647546494060578 -7.251888673109725 -7.027574403437101
-2.8591917244111715 -7.269956741511322 -7.031638698328202
-2.929134688633546 -7.283614059310473 -7.035437959226273
-3.0015037635976833 -7.289643162666351 -7.040781438899702
-3.077659499316053 -7.2955141427305 -7.04724774675785
-3.1475794401828363 -7.3025686285873554 -7.05405020164551
-3.2195755409426816 -7.313202952253448 -7.061843966378775
-3.276550002633445 -7.325295334912452 -7.068491487763809
-3.4048638391670063 -7.3679702099768765 -7.086562831395766
-3.435139080620888 -7.378713968700206 -7.091080589771734
-3.465315036212275 -7.3892907039668625 -7.09596857691007
-3.542857498102511 -7.411656363233803 -7.109776817366952
-3.6282001367166696 -7.4360786234019205 -7.126526739793788
-3.698101805157513 -7.46020329743758 -7.140956396508094
-3.7718854789245464 -7.500592142039361 -7.1602031156714245
-3.825518617032441 -7.527982288605102 -7.174394290318896
-3.9014069463351686 -7.55862614774947 -7.1957743932373885
-3.9973727526582765 -7.60542399364267 -7.226962019422516
-4.070055193053594 -7.640155672400558 -7.2523678315380975
-4.120235654615017 -7.660309675257894 -7.2714154750446545
-4.195621150165721 -7.684747522710225 -7.300020331829676
-4.245235786328391 -7.699017854465396 -7.319753086867219
-4.318495961781976 -7.7293104243350435 -7.35276947349836
-4.377893185724784 -7.753220315174456 -7.38123850656467
-4.429215429602443 -7.775126527210679 -7.408197199524641
-4.474417732781524 -7.796297609629228 -7.432799862092236
-4.575138593996938 -7.851457634312398 -7.4941219835884825
-4.641725147957653 -7.900343635356895 -7.540766667586131
-4.6861276302874595 -7.935762481313775 -7.573324685358005
-4.734157191503314 -7.973051251312318 -7.609932496857556
-4.777201221259043 -8.003545736045837 -7.6434966761837115
-4.814728638194907 -8.028878604610389 -7.673717493522974
-4.885762612578198 -8.068740398477622 -7.7295521134493255
-4.958809613463275 -8.125097598097991 -7.7943491945962124
-4.993795733641871 -8.160838888721646 -7.826450230608843
-5.058218312131532 -8.229889842492796 -7.8915915097363465
-5.103850156345031 -8.279788946748603 -7.937779928975801
-5.1318231158506205 -8.309893427759638 -7.966395992116893
-5.173981463150519 -8.354445733200125 -8.010632598697228
-5.2146378518480665 -8.398455745993322 -8.05419394375317
-5.241730131137757 -8.428471541132856 -8.084003550397583
-5.268780499395419 -8.457984151810043 -8.114373109729602
-5.295900535164594 -8.488259037071463 -8.143911632063642
-5.3269419682069685 -8.521961308995822 -8.178977857868006
-5.3789396988809814 -8.573334018461901 -8.236500497449345
-5.420839442566322 -8.611978327049098 -8.283123643163144
-5.475755104186331 -8.664709032633574 -8.346140076607089
-5.5435232697056875 -8.715860867667843 -8.418584383351359
-5.5748394937589625 -8.74992670542355 -8.456993158025806
-5.632517109802458 -8.781175765743665 -8.517165174170941
-5.691821280617686 -8.78954879433795 -8.569785030397195
-5.743521264062457 -8.811439685368434 -8.62349838863016
-5.819924713400735 -8.848823757586358 -8.703555917182708
-5.868122931783511 -8.887471935712936 -8.758572188866875
-5.9069725661390065 -8.931805443059284 -8.809508980649834
-5.93537402001323 -8.963548334860548 -8.846042097316488
-5.980912913249273 -9.014599947764426 -8.904634714420407
-6.010056271002112 -9.056849328462055 -8.946778799982773
-6.042885430057812 -9.100216577122604 -8.991865002435116
-6.068773592889542 -9.136582523512233 -9.029111316013818
-6.096501732687154 -9.17567090609483 -9.068795980590519
-6.137301336519404 -9.228435501058332 -9.125418204318986
-6.186433210583412 -9.272921545340457 -9.186801662513698
-6.227574477901171 -9.307291964659324 -9.237358940905843
-6.257409612294024 -9.32781863715107 -9.272324647781911
-6.286412993717754 -9.350952538283709 -9.306837493795726
-6.3183187161519285 -9.400743603153023 -9.355498299441496
-6.340769067399545 -9.43379283880083 -9.389267052445835
-6.373241675813993 -9.469333125754634 -9.43355368099403
-6.419455631256123 -9.524540813736802 -9.50224021109035
-6.445629514578438 -9.56544305805006 -9.544214779486595
-6.466334762725382 -9.59894812831468 -9.578118709171857
-6.501157536179772 -9.660365841384596 -9.641032066824728
-6.519583009656321 -9.693520894917977 -9.676560203084978
-6.544189758821749 -9.738909080379536 -9.724213884598445
-6.566794512751772 -9.781713107991317 -9.770564689738183
-6.590686896824559 -9.826723268076313 -9.822527443811573
-6.6130922147974465 -9.862996533306157 -9.871114668755439
-6.644157568051705 -9.909278156404394 -9.939642976463265
-6.674318075129629 -9.939505627785982 -10.001882611341774
-6.69411536831797 -9.968532216365867 -10.052494193945883
-6.713623616666087 -10.022794741320029 -10.127136600195527
-6.731746029339913 -10.061064028058912 -10.193057813637804
-6.745219153677837 -10.086932058664036 -10.24312981824323
-6.7553756825998335 -10.111438413808257 -10.287379914170177
-6.770640289151318 -10.143724077314442 -10.353300635226951
-6.776342038000007 -10.169674799481703 -10.397278531518701
-6.778212143849627 -10.204881836269314 -10.445175468009936
-6.7868008834032825 -10.250154856589381 -10.526063227531953
-6.789163865084031 -10.299295279417295 -10.602864062204262
-6.787735421100973 -10.335834749092566 -10.65782795165942
-6.78928313670593 -10.373480155413237 -10.723231679118612
-6.786593179194317 -10.404708636249726 -10.77127151262409
-6.7857403211283325 -10.430592723274305 -10.818473868508057
-6.786376021962228 -10.464657981671193 -10.891998917812092
-6.789345100932259 -10.481073733916862 -10.94386200411218
-6.7956921427399495 -10.498303905143086 -11.015352937415912
-6.7883710295018105 -10.532870990405074 -11.081995456911415
-6.78231056296087 -10.560627113610042 -11.146396588105514
-6.776200846411461 -10.589255639861928 -11.232997510222209
-6.775501250099174 -10.59626497124575 -11.26327115214729
-6.774406263999533 -10.602810860821174 -11.293673058273246
-6.765772422134837 -10.622964488047124 -11.350434756324873
-6.754643313655385 -10.645617850751233 -11.404981419916012
-6.743629055595987 -10.66272095483898 -11.51039491602986
-6.711838249610422 -10.702975492925326 -11.577493833336543
-6.685844286955148 -10.731866943055818 -11.639226185845434
-6.653946348335085 -10.76304770113836 -11.705820259478351
-6.62893914327203 -10.785665347327853 -11.75328583280718
-6.595353421632685 -10.808354810734505 -11.825115747406127
-6.569490297126947 -10.82565216367978 -11.870901930986921
-6.52793545758547 -10.849868198936234 -11.936258321743558
-6.489140137986779 -10.86677117309235 -11.99812186762312
-6.449714461371761 -10.884965923798969 -12.045104349407136
-6.37991437991969 -10.917637765558977 -12.1177473585136
-6.316433791131558 -10.936315055334706 -12.190592751830007
-6.264219791627916 -10.959983934949202 -12.231523669622877
-6.225178631696643 -10.97605907652034 -12.26241675943265
-6.184264541379085 -10.995676414511912 -12.288336539180111
-6.142979891475566 -11.015027336828936 -12.314571566301499
-6.102337811950999 -11.031883435558345 -12.341909638197237
-6.05117130739144 -11.053955042340906 -12.374147904529533
-5.956950007601533 -11.111073299244879 -12.406814672806266
-5.899598322784616 -11.142811563906262 -12.428478050110371
-5.855727355674176 -11.165188065642715 -12.447907065822594
-5.805762985141421 -11.1763439602619 -12.487230700268984
-5.7228883816864915 -11.186994575018584 -12.559828624862238
-5.618643420725855 -11.197569479718164 -12.649955393319722
-5.559545478993618 -11.201734599216946 -12.702169535130068
-5.516533627247844 -11.180061916404272 -12.767835621775028
-5.478156286820743 -11.168269807635996 -12.817488640589257
-5.43659159512296 -11.161404486785925 -12.86291839321353
-5.385336724579721 -11.145488268465826 -12.926645797329357
-5.339161333679091 -11.139117943653163 -12.974058608840775
-5.293641653639351 -11.133450757565456 -13.01900529858473
-5.234974599056809 -11.106780207929374 -13.098276671576084
-5.168770302880436 -11.095279598017207 -13.165095738728354
-5.092210714341967 -11.081053394155592 -13.243072641317145
-5.0413551016077305 -11.072750425849927 -13.2919254747701
-4.995288546522806 -11.065600297333525 -13.330943291367788
-4.954455519069761 -11.061489343617643 -13.360479043543858
-4.895921313250013 -11.051917547445003 -13.402278811086337
-4.835466499748195 -11.038545096734618 -13.441446921411494
-4.78969034618955 -11.029154197136876 -13.467167559670525
-4.717819305996688 -11.01698696581664 -13.498288637100142
-4.666985469172627 -11.0104128300948 -13.518863229315226
-4.605460832067203 -10.999500376107521 -13.541904433881118
-4.54935317157094 -10.989207660848395 -13.561898058412723
-4.4927115061345555 -10.98299098560504 -13.57962342270325
-4.4364425545592265 -10.97674340305573 -13.597796207036442
-4.378824454719098 -10.933109627354911 -13.645306174963693
-4.300486031549598 -10.896195217445126 -13.701961663122947
-4.254548937723948 -10.867692379700655 -13.746087881251114
-4.207141880610988 -10.827773675148944 -13.806781185942572
-4.178524294590844 -10.798258271795333 -13.85146515334769
-4.156923547931719 -10.761491137656574 -13.901534003358634
-4.14083387992123 -10.724599495247588 -13.94997278250489
-4.125793765806153 -10.680321398592339 -14.00627367288029
-4.112400380074015 -10.63589006873624 -14.062155402806642
-4.087989572462809 -10.566936802440317 -14.150942890591057
-4.071189007481334 -10.527007103006442 -14.20248986192643
-4.054003860024937 -10.48631144229496 -14.253328041375774
-4.029989674253214 -10.433680685489644 -14.317188478473241
-3.9977193132975315 -10.390782988226267 -14.374946443938935
-3.9777726190318186 -10.361534879498215 -14.411162769235553
-3.9490198530135556 -10.311308375853784 -14.468226124291142
-3.9173364379809055 -10.264062341607694 -14.522544927654462
-3.8761037183142077 -10.236484784093093 -14.562205996385877
-3.8287323722476483 -10.208186849070081 -14.60405770806932
-3.759071799828158 -10.175531064728084 -14.65695594267438
-3.7075101117923106 -10.164301133691309 -14.68555355926723
-3.6473200541199375 -10.150844656929056 -14.718617609233995
-3.577478719909435 -10.134540021445648 -14.756806361115967
-3.523421152146618 -10.1246956309313 -14.7840733187295
-3.470665985723598 -10.12035709581665 -14.806628822479603
-3.3873238001377146 -10.117520099439018 -14.83816868364108
-3.3134604305992186 -10.103729781692612 -14.875108615474407
-3.2598133126925726 -10.086118717749134 -14.906644556166132
-3.202834557968524 -10.07055198830551 -14.937997415528827
-3.151899445074129 -10.0611195601007 -14.962531013789654
-3.091879939621845 -10.058322331410936 -14.984921795024452
-3.0243493141732896 -10.045477175135918 -15.017300974566783
-2.935436305356195 -10.034945467092907 -15.054556233584162
-2.8496034426324526 -10.02744404996944 -15.08563201563599
-2.788170474199371 -10.012070085733228 -15.119852211049864
-2.732453305299408 -9.99128526747634 -15.153894518440985
-2.654170703356491 -9.965334177158232 -15.198980714948426
-2.586955286747574 -9.944876903060235 -15.236648566426151
-2.5438115484776187 -9.929108146042308 -15.261757309627427
-2.4625900251689186 -9.900088466211841 -15.309966429428165
-2.364396490679692 -9.88033466757237 -15.354888354469015
-2.2753744907987334 -9.844330064644264 -15.409744180512565
-2.1835527751147623 -9.819971807805763 -15.455550039203118
-2.100711075395857 -9.796645368763944 -15.49898642445612
-2.027720045271857 -9.77585717913722 -15.535348275660386
-1.9478422305295937 -9.767517672763164 -15.562994172286874
-1.8779203809785296 -9.761807205760817 -15.585187339736223
-1.812459156364203 -9.756635386780552 -15.60524231625583
-1.7388151611897724 -9.748635248234388 -15.62902078793299
-1.6822991373478202 -9.737404826247646 -15.650784944636534
-1.6180106208203244 -9.723693066693318 -15.675710927351378
-1.541254050931916 -9.702614193963269 -15.708002179958648
-1.4401596431094528 -9.656746705265741 -15.763108789049937
-1.385637612673813 -9.640953057462601 -15.783897028912449
-1.3221913919534916 -9.593352237212667 -15.830645092281156
-1.2715035604246756 -9.568329342335714 -15.85651315496478
-1.2193809020527135 -9.53047500954776 -15.891824711919647
-1.1679253115310169 -9.495684006864746 -15.923317989284008
-1.1164316616188286 -9.458581868911086 -15.955593464954386
-1.074205450703848 -9.425089160832808 -15.983456538807733
-1.0443441080691906 -9.392636058868268 -16.00954798377064
-1.0132424687423796 -9.360453350810223 -16.034162203198704
-0.9844156590371078 -9.327250722752954 -16.05912703001992
-0.9425400934853019 -9.277214974157946 -16.0960172981194
-0.8970522286465918 -9.232885724052384 -16.12707731994144
-0.8407420925561047 -9.19062731932602 -16.15493009659551
-0.7967335846194379 -9.159607512628185 -16.174266393903515
-0.7448312358455862 -9.12255351809315 -16.196038712997186
-0.6993123137645529 -9.088677563311624 -16.214886914620916
-0.6487839613986051 -9.051926225838846 -16.233781347442996
-0.5808023848051942 -9.011859560343273 -16.25169243624564
-0.5119670407931594 -8.977432004173567 -16.263860790783664
-0.44883070881134834 -8.961427162425538 -16.263578348706424
-0.3906087616781937 -8.940645360413628 -16.266227082675524
-0.33246660103509473 -8.919778388561253 -16.267902862136935
-0.2743802301091609 -8.898535077847718 -16.269238300629997
-0.20053550163550327 -8.870843648614128 -16.27008800090307
-0.14275333111995536 -8.842129839148793 -16.274045082964946
-0.05370424972437249 -8.794820785995832 -16.28069141225582
-0.01334462111754764 -8.754948066915262 -16.29423780988087
0.02689525872314391 -8.714104876874071 -16.305878470677968
0.06844225238520796 -8.672028437024949 -16.317122868237867
0.10877047838064158 -8.60949233479895 -16.339478177099448
0.15036779225623853 -8.552342557594821 -16.357066082494168
0.1908855632533797 -8.4822740848704 -16.379680504023042
0.21562950662156055 -8.429971512547572 -16.396985775727615
0.24422961215215455 -8.368788927594373 -16.416637808386863
0.2749348821214923 -8.309509346402352 -16.433043656279448
0.3103745914497935 -8.246741011935315 -16.448192527673584
0.33872119502955655 -8.198427243335452 -16.459540055153923
0.36077170771518485 -8.156087355421288 -16.468104586880074
0.3972613151658013 -8.088352285885259 -16.481465555503302
0.4308704932147389 -8.030388155680189 -16.490945594613944
0.46862764057647244 -7.969149232278994 -16.498846838097307
0.5045525964770716 -7.917043405518498 -16.503114941651226
0.5493684899371445 -7.847895671329095 -16.508345969695768
0.5779123419270595 -7.799797510680413 -16.51207878125091
0.6157924960979368 -7.739081875092019 -16.51465598553374
0.6656484406139977 -7.669643196100218 -16.514423741533083
0.7119600848565 -7.603146349587572 -16.512304108539436
0.7762901577481003 -7.529487766676436 -16.50442962418296
0.8267117083156892 -7.474847474352707 -16.496684078850738
0.8876814700207625 -7.417821528691437 -16.48498258833895
0.9403385611457162 -7.3543565503048605 -16.477518842894018
0.9788807205219134 -7.304262001347048 -16.472500546085126
1.0118803427441732 -7.263641938409162 -16.46717287916202
1.0650800390012858 -7.208684043913728 -16.45646789146733
1.1101533746568464 -7.162975590734094 -16.44615406245596
1.155751355722832 -7.11696279690306 -16.4348966306329
1.2004276600648085 -7.067238994491632 -16.423523240941748
1.253006630988705 -7.004376185987015 -16.410001168606914
1.3110134691224262 -6.950309593929381 -16.391666664312837
1.3796689431194977 -6.879499831207613 -16.36745392484795
1.4140640683689023 -6.841378104118817 -16.355007536872062
1.4648581975386215 -6.797299797111934 -16.333757241106845
1.515193057643705 -6.753266750088237 -16.31141705187839
1.5660785483208732 -6.710649513446594 -16.287452739294473
1.617270972031327 -6.667067282487372 -16.26117543643768
1.6682511960959374 -6.623855041728627 -16.233065267803553
1.7211892628993617 -6.583138167956313 -16.202027680066333
1.772211421202602 -6.563931451247488 -16.170181620184664
1.8172887076428497 -6.544926706667098 -16.14046832105478
1.8603852291141614 -6.5252238730851495 -16.111936663806375
1.898978398697306 -6.5047139786230606 -16.084767578945854
1.9373172724750152 -6.484437184732128 -16.05659015695196
1.974373675917553 -6.463530209636897 -16.028419351668372
2.0121185164723876 -6.44276864714954 -15.998334415519157
2.064091320879597 -6.408450224932296 -15.954466335424243
2.1281124166531944 -6.360816615546021 -15.897113769884541
2.1939231824871532 -6.332679414673814 -15.834469698087169
2.2498141401751495 -6.311141403598337 -15.782540639663228
2.3077729005607424 -6.28659915597115 -15.725241437141719
2.3587647852756035 -6.258959329739085 -15.672531530153222
2.4031638938944555 -6.230149881915345 -15.624748819398839
2.4442472500998678 -6.206974206243302 -15.580635030822556
2.5005188714538207 -6.176562362865441 -15.518524399297057
2.536081202019398 -6.163904323490033 -15.479613569957497
2.5807062138535866 -6.149249841438559 -15.429846242132463
2.6491713830785244 -6.130412709515661 -15.354941934656054
2.7081212513961166 -6.102786375165415 -15.285424839097303
2.7684125852448798 -6.070130229346103 -15.213074184066123
2.825293114917244 -6.042588086571179 -15.144278934062037
2.8811353757346305 -6.022182802702069 -15.077085137623712
2.9164700338598397 -5.992195113211393 -15.03049897581711
2.956713021550038 -5.964778632192949 -14.978203200762724
2.997352639070339 -5.937606084636865 -14.925068559867725
3.0271322238811535 -5.917060776877854 -14.885970654509208
3.0806329174324203 -5.8634269572381825 -14.81052648562305
3.121139960462761 -5.822984384534326 -14.753246724595591
3.1580615590486136 -5.785040886335697 -14.700780803260898
3.1923787894875577 -5.751809928790293 -14.651181029344901
3.2283387381972304 -5.721219394342166 -14.598826429898956
3.267623466644899 -5.698996757254326 -14.541315331096271
3.3087600513950157 -5.6820807922503604 -14.48685379911148
3.3497806564406325 -5.673511428266163 -14.430364029863476
3.405522469099804 -5.6794355086835875 -14.357760627668085
3.451826300552378 -5.679178122618597 -14.294129097510591
3.4954906253366094 -5.686491236317905 -14.236023557283566
3.5588594157348457 -5.691589357316859 -14.144919716139505
3.589811780535756 -5.696559423412774 -14.101746030634736
3.6247448043425052 -5.694740093839419 -14.048459319485946
3.67072768003427 -5.668613355872335 -13.968652329396779
3.697976611184094 -5.651193803593921 -13.917668703268259
3.7214702591371758 -5.63043564073719 -13.869668345079823
3.7466887619390263 -5.605826849276847 -13.813438599748839
3.7742141310127746 -5.572764186072051 -13.744333127757983
3.800157526223808 -5.543794688777651 -13.671882699084545
3.825117531455726 -5.517529226351462 -13.593215745768283
3.8494580189252954 -5.501705543964874 -13.508071775366314
3.862105457696348 -5.486924797584615 -13.448204231330763
3.8735963730814227 -5.484181061114262 -13.393698043269033
3.8910997947322734 -5.4972028342734855 -13.30768582053853
3.905277591116672 -5.518079905784367 -13.222047677721541
3.9141892571784886 -5.531446462143796 -13.13782162518774
3.917446353683287 -5.536062915916667 -13.062570503114571
3.921335038453993 -5.5469805892827 -12.952892185022534
3.9210620837215586 -5.533843919277907 -12.872110302783941
3.92112068656912 -5.524987153120433 -12.81394082650095
3.9208527023492454 -5.528508132804305 -12.7428123097679
3.918431395748133 -5.530100792638152 -12.666856329592754
3.915258272606833 -5.532009748301617 -12.610715887496962
3.909626295314604 -5.535527045130834 -12.540106068458794
3.901760863251644 -5.541406319838385 -12.461568530316633
3.8897599462794705 -5.545318407209647 -12.366639054941004
3.8854378308507975 -5.547564000205308 -12.336079069515733
3.875158203130587 -5.551951976574963 -12.27362184827971
3.856760503612456 -5.559176866282733 -12.15339138046689
3.8376899914538694 -5.5744808540189545 -12.05616352778791
3.8222049742222506 -5.591261897172789 -11.972635104321991
3.8069419914960907 -5.601240294843063 -11.90555854491475
3.79695657290206 -5.617770138755187 -11.843379426774732
3.7820655001730508 -5.619114822797829 -11.785238361535068
3.7647202075498463 -5.6088277398667135 -11.734296680562423
3.7462531460671915 -5.594289856972734 -11.686174577353995
3.7242965258647764 -5.593902567697466 -11.613590478408195
3.6959266870196092 -5.585917842326684 -11.533864443665053
3.672103503205639 -5.590109135041169 -11.456828656349742
3.637841262068582 -5.5902936503437095 -11.360015516623342
3.6191491071234196 -5.6003447763642695 -11.299222752682642
3.588745564362446 -5.607545300478037 -11.214350125433022
3.5636969569780526 -5.606890559752982 -11.155283358168472
3.4953490812740906 -5.605157794317078 -11.00704202085539
3.4593223826674127 -5.606945499376437 -10.936256066957004
3.422277107149819 -5.611595237681486 -10.867833821314253
3.3909534718623853 -5.6150978181088576 -10.814872616835867
3.353416641769485 -5.610803248338119 -10.761386313462804
3.312000118407873 -5.6060251336949145 -10.707446628900836
3.24997897380746 -5.6054025469992474 -10.63568878418273
3.2133955321092778 -5.612414503652245 -10.595423495224711
3.1583769316018344 -5.628153080196695 -10.537369668015806
3.1026211643874575 -5.658746934724733 -10.483667423633914
3.0549098886815056 -5.690519505217381 -10.44241430744001
3.006668820240292 -5.720788706821049 -10.406122972574224
2.927697145031428 -5.771773133677748 -10.353988076552557
2.859739435618315 -5.836851302345012 -10.308834375902524
2.80899249894816 -5.872284129437938 -10.281046616626536
2.745060319477835 -5.924285877016198 -10.24712151058353
2.7025861180622073 -5.961760942826561 -10.225136149740372
2.6545480336551526 -6.007421668783776 -10.200865791831994
2.619268353822779 -6.040444211044788 -10.183262483992849
2.57176702657849 -6.092321256881506 -10.158763526297598
