483
22.91571784319889 -6.205046140525136 -14.721240895034354
22.884732514932768 -6.206040844208864 -14.644455806073243
22.854953389619237 -6.196233793211621 -14.583866153717606
22.824620247766664 -6.173409968646748 -14.53295870836363
22.801611224345013 -6.168948355815856 -14.483424776486272
22.774606237721997 -6.165878249974652 -14.418983775273782
22.75424550477546 -6.1764447697122575 -14.34883849833148
22.73744811751152 -6.206420505067137 -14.25686166810952
22.72389114627371 -6.2342484437983305 -14.177243235401296
22.711604796571542 -6.242962419361908 -14.123538257776623
22.69219808394948 -6.253772666683355 -14.044352344368455
22.669146996233717 -6.252534521736268 -13.973065477839842
22.64312668829364 -6.251620156616273 -13.886619491377
22.614580148385873 -6.250544652329665 -13.786480322050982
22.58719565223571 -6.244971197244175 -13.69417552011757
22.572255146690203 -6.246540774454644 -13.633388294629626
22.55460735550344 -6.256834285891849 -13.529328026571125
22.545095405429027 -6.270449818952152 -13.45345848991432
22.5386924043051 -6.280754643967729 -13.396431795007567
22.52855922925588 -6.285490718209267 -13.341205102771559
22.514418186776837 -6.28834822477945 -13.26402515733814
22.50377863600284 -6.288794913818924 -13.211633007052647
22.491040444139323 -6.289633531186955 -13.147464015122377
22.479040948137293 -6.2913743937585 -13.082953288911485
22.466524943725076 -6.292637525307911 -13.017495299026738
22.453133192712304 -6.294405186642233 -12.946061262808284
22.44209161585 -6.3009117926991145 -12.869343293030202
22.42796609442829 -6.306091413303237 -12.778904206332246
22.41798514936199 -6.312330618123092 -12.70515705784005
22.40669151216244 -6.319670465864439 -12.6182354751159
22.397866639134804 -6.323763820691668 -12.55432775545619
22.38636968919878 -6.327501192035489 -12.472398588981527
22.376247993464496 -6.323344663748492 -12.418460119554213
22.36322320924247 -6.315993216699981 -12.350975531402355
22.349142556722178 -6.306591178607212 -12.27697125186604
22.341937955395775 -6.314602689095078 -12.18501745124343
22.337782840215525 -6.321219932160192 -12.117167779680024
22.335181035055165 -6.331290968237545 -12.036703738104302
22.330547991114074 -6.332518039548978 -11.966000621746298
22.328681841775598 -6.340784372190214 -11.852995295831766
22.32139196995328 -6.323620077721244 -11.755285736318012
22.3215371507453 -6.319489396251719 -11.664294318723503
22.324089154278617 -6.316346589496016 -11.605580164292467
22.333805416783523 -6.312024415642995 -11.503114019586363
22.34747915121774 -6.310361855102496 -11.416266552175014
22.361970907052765 -6.3071348324872565 -11.340191838247447
22.37617869230945 -6.3075421575156545 -11.279216565557448
22.395027420166105 -6.308298723968687 -11.207589534810777
22.41231787030446 -6.308606669611905 -11.152287795030968
22.43122436419466 -6.307452452940693 -11.089448180401169
22.457218348284073 -6.316516220557961 -11.023600685069432
22.483784966430953 -6.328793101202308 -10.963854878918296
22.51445362078012 -6.325221724145432 -10.878796028426281
22.543280653856492 -6.336854624560422 -10.818366966671622
22.570381356205733 -6.34940444944449 -10.765493073860139
22.61428383323962 -6.379624493396143 -10.691658308247538
22.659753165724105 -6.4060915422096825 -10.615726788077897
22.706385718751644 -6.447373907048205 -10.552904501029245
22.74770059570217 -6.474680624202071 -10.49144863917754
22.790575390563433 -6.499532461874168 -10.428372042505632
22.8273859818258 -6.508135811538531 -10.365822431678144
22.856697508181654 -6.509203929050313 -10.315528143856195
22.93077081177883 -6.5218916933888735 -10.218754686129543
22.984085312914647 -6.521366750591721 -10.167513961988195
23.039444266602626 -6.509616925465692 -10.125714663898366
23.09210050207486 -6.503174748553132 -10.097418845007704
23.13763543209161 -6.496555383682221 -10.073583214868364
23.19704590865265 -6.48771795735402 -10.037181930860717
23.265019881039915 -6.501706379293634 -9.993516005549143
23.346592671117826 -6.538549511198706 -9.939529660773145
23.401035220947165 -6.602551820007257 -9.918571679610228
23.436495436995855 -6.651478787900574 -9.90740967370441
23.479747543015083 -6.732086830074823 -9.902961028666825
23.517732960869314 -6.808783004655386 -9.90029068050591
23.54454041671194 -6.861453845164666 -9.898451620761366
23.593402490380775 -6.94357898690217 -9.89125241729378
23.627182138540856 -7.0122082079291435 -9.892224503534615
23.668826994112703 -7.069366148404161 -9.881352840668814
23.711926154974737 -7.114178690386354 -9.86920330588612
23.767797708924647 -7.163845428507935 -9.852163490812401
23.843268321270646 -7.205355147861272 -9.825195648508927
23.940084564556045 -7.241163643139077 -9.788919658904039
24.00949481111257 -7.252591970043924 -9.761109570571238
24.07027859236975 -7.265739968165304 -9.738234602366418
24.1325245020321 -7.282778332224155 -9.715846860274029
24.20069223081459 -7.269276317106267 -9.687505161923017
24.268686203123057 -7.253429000268895 -9.660291963920715
24.36069010247273 -7.234537287028153 -9.623581227111066
24.42046486946795 -7.203550036483555 -9.598275538703259
24.47099774760055 -7.168884249809486 -9.576821377368546
24.524525321146495 -7.149692717526305 -9.554851559238998
24.580804388871226 -7.120469274339732 -9.531803896414669
24.625625935710392 -7.110480877923709 -9.513416139382626
24.669311680844874 -7.10074577031892 -9.495494018214574
24.755965459734124 -7.0794519127009705 -9.459359131059529
24.822663557658267 -7.067437553005522 -9.430472359861417
24.917677334723802 -7.05138561737926 -9.388329596202746
24.963214641841645 -7.0489730790421845 -9.367049767062479
25.031938884952222 -7.028169277029014 -9.335710635549676
25.102055509254612 -7.010706550511092 -9.302067929096342
25.166553133784475 -6.9968016461230595 -9.271142266024855
25.247678707601516 -6.963328870578341 -9.230476214939495
25.346824452412708 -6.9207038057682135 -9.1800090211914
25.41563619401738 -6.906601891255188 -9.143246509766982
25.496493787536107 -6.887295794829002 -9.0985761578009
25.56036839652332 -6.870562998096576 -9.062337373183096
25.603623600632332 -6.844147406720372 -9.037842899435416
25.65938597347626 -6.8081090311410835 -9.005582845219216
25.738200620864024 -6.772504690558166 -8.956705014397103
25.8146877321904 -6.718372869317861 -8.910321666976044
25.861932149394082 -6.701431986868704 -8.87942598480384
25.9010217562032 -6.682680048194578 -8.854371522715669
25.952399277130482 -6.67303360623878 -8.819679286414326
25.993861974268672 -6.642917075201787 -8.793330031787363
26.040148923514913 -6.619252548636478 -8.764042907139359
26.093246987884424 -6.6068579178034845 -8.727883242111323
26.132375875179083 -6.597724190847966 -8.701237826658678
26.218177673188485 -6.623611063575533 -8.632184433542045
26.258627606527238 -6.640903122951617 -8.598524391856307
26.305466609396582 -6.642733009984541 -8.563635282698051
26.350122847111937 -6.656205766610485 -8.527521572113084
26.42436168895442 -6.677539381032362 -8.467509424823998
26.457470935394213 -6.686094754683801 -8.44106958429935
26.510377876897824 -6.699765403279123 -8.398821529876267
26.567230976473585 -6.700785217294603 -8.3582010152877
26.626811781347598 -6.697031891197498 -8.317152112795892
26.67013581539576 -6.705828971415439 -8.284320764311914
26.71845959473557 -6.718270134443532 -8.247171462595816
26.779277160617124 -6.741501441015938 -8.198608709754259
26.829155773751022 -6.762565615170535 -8.158320134893446
26.890532757882347 -6.77592753211232 -8.113786419295293
26.95434386179879 -6.774573513312105 -8.07414236646913
27.06066503962707 -6.741105094995948 -8.02375710833195
27.118189430734972 -6.726405027762672 -7.9982724310637305
27.217017595253992 -6.733016187374325 -7.940708612274857
27.282181439981986 -6.7481528449384305 -7.900503667857983
27.366415177604846 -6.770830491651777 -7.848930794999685
27.4344096187703 -6.779051261017597 -7.812211453169256
27.493618777187216 -6.780654986032276 -7.782720402877452
27.554104784634312 -6.775559245070646 -7.755173854854936
27.61567371332607 -6.768270590810265 -7.727654688535454
27.686165312066212 -6.760214234324913 -7.697041801246282
27.740971661688953 -6.755028901232623 -7.672738437710144
27.7991304502297 -6.752466611902612 -7.646869517826476
27.875188746451272 -6.748525471070654 -7.61273933749902
27.939510447941917 -6.732126068985834 -7.587924147003253
27.98615140292273 -6.7218191184864144 -7.569261530706388
28.059913783209563 -6.7137020184819605 -7.538521241157451
28.123264054455657 -6.708992177074398 -7.511476259148214
28.20933023779766 -6.685576975491921 -7.479897117322036
28.28326428237461 -6.6912368936497 -7.446823290663946
28.36368176293236 -6.693082471027346 -7.413138376101985
28.417069821012863 -6.681035241627356 -7.393549011874452
28.484409269257124 -6.676600293958868 -7.367456293594714
28.580501263426555 -6.668864025041001 -7.330212757569974
28.659336589900494 -6.665075705497223 -7.301534013642023
28.751568239284428 -6.644584953560084 -7.268910517763302
28.817653617707947 -6.636471691051697 -7.246489472811129
28.90103775954611 -6.643974681174334 -7.2166240241563955
28.964563590263918 -6.633720696024895 -7.195294631871011
29.02292209748048 -6.630229135850979 -7.176319417378581
29.089589825114174 -6.632394345333319 -7.155796126064892
29.161071986549818 -6.638694091671966 -7.13481885706509
29.220268383450666 -6.631334548858743 -7.117529459891429
29.288632821997847 -6.619942643575484 -7.097955887877605
29.34622341279494 -6.602892725941636 -7.081072663013643
29.423082934545977 -6.583702481793239 -7.0600361074966695
29.497721882778784 -6.56397962362823 -7.040044255963693
29.594086444443942 -6.558231241411541 -7.018787438830675
29.674541024622023 -6.548123582238137 -7.002561558699924
29.72794151016531 -6.538603951240747 -6.991871482646278
29.80041274379358 -6.528248579328291 -6.979426911190734
29.889229771897362 -6.528948215719534 -6.96902823079215
29.96596886900442 -6.532877713486327 -6.961679979606073
30.040486127638705 -6.535906982383293 -6.95676889283879
30.11478269151276 -6.544714283310764 -6.954332318459533
30.178836701709805 -6.55192800852948 -6.953834689443614
30.279145476388358 -6.56728184170201 -6.95679260096607
30.377815999149284 -6.588892009349385 -6.964486761119117
30.459112173446524 -6.603486070154228 -6.973554627120096
30.553719917593014 -6.621033576976339 -6.987526724304269
30.610847632533982 -6.622613440502868 -6.997571977254438
30.69954186222263 -6.625059125216213 -7.015563014856607
30.796871713951855 -6.639448443268616 -7.0416382426316595
30.85733319132476 -6.6458011999455024 -7.059953906232183
30.917003829782015 -6.652579324262325 -7.080297665976207
30.986197020546346 -6.660713409421405 -7.105326590116732
31.032008495816573 -6.6689861999804325 -7.124927134936112
31.092684485487855 -6.677793234367153 -7.151173499470168
31.140477898843415 -6.681632619461036 -7.173148343728721
31.224729544599178 -6.689600435274371 -7.214642895175913
31.296530116651923 -6.701217045139538 -7.253095584259118
31.342646983518446 -6.709590522898267 -7.279702016545812
31.398549907315164 -6.713175788162587 -7.31449434947835
31.472927642708083 -6.71672033232111 -7.3644004166864345
31.525402706528663 -6.718912834619475 -7.402791874649608
31.59827391603605 -6.719215326393832 -7.459248283152061
31.641198863756465 -6.717450854135144 -7.494670502982986
31.69282226445908 -6.7118545668704135 -7.53892690039981
31.73237368910451 -6.709815819199699 -7.5750052395336755
31.77250652577583 -6.707705667670966 -7.613626500092929
31.80159745550992 -6.706176331335236 -7.641622647246708
31.877571615014332 -6.691948887925425 -7.7174569495817416
31.923811394503165 -6.689605608101331 -7.768787171607238
31.981247587244077 -6.688251740659287 -7.836503565199045
32.0369259533051 -6.681754380217868 -7.904307342793086
32.10177799021474 -6.669112833751995 -7.986713863748687
32.145633559555534 -6.653978893104895 -8.042877579681997
32.197116150744954 -6.628351500686574 -8.108382863209773
32.231998527600894 -6.613268873738885 -8.15560388927798
32.26353492947303 -6.601318862431247 -8.200687058108242
32.31048380942007 -6.576698480935422 -8.267425302849606
32.35524074181454 -6.54718733756997 -8.330016016697103
32.38875795042547 -6.523592337867175 -8.379358747407757
32.42214881346936 -6.503849960851374 -8.431376647503438
32.446482378529055 -6.4968067495351125 -8.476479839466174
32.48344193167334 -6.48648534627043 -8.55251185649848
32.509689279932985 -6.476867211280547 -8.608445810198798
32.53560617158367 -6.4641837717491155 -8.667722715369464
32.55741355335484 -6.458141454608985 -8.72470417034935
32.57947827520121 -6.449131780433198 -8.784892414451804
32.600620643296494 -6.438826101601501 -8.845796246600678
32.62098316484334 -6.427573046644411 -8.907598961796488
32.64011055406853 -6.417680937654932 -8.970747683892085
32.65839604921719 -6.406438059788869 -9.034530153110946
32.67666314894249 -6.391722865305523 -9.097952521840508
32.6942594634648 -6.375298863470976 -9.161700122757283
32.71729081063812 -6.353565965080098 -9.251611180040019
32.74450523467596 -6.3172590849483665 -9.353488211830307
32.76215713964283 -6.293824891394655 -9.426485859058412
32.77591413116827 -6.272295739922905 -9.481381856774702
32.789519114489025 -6.248854799930429 -9.536344505867037
32.80492450492185 -6.229746424342302 -9.610925179499302
32.817528604420716 -6.2178020955977304 -9.6789921024411
32.82933845337629 -6.205639913359208 -9.74706915332323
32.840491240989465 -6.193099761471221 -9.80847123081826
32.85417034725244 -6.172177559817024 -9.879752906115806
32.864195507307706 -6.157573735879103 -9.931837842753296
32.87505147973235 -6.149130492091972 -10.000863931857786
32.88450420467386 -6.1404856121495595 -10.05974757046407
32.895259642669664 -6.128730248077419 -10.118501394594963
32.914058342304074 -6.097952013639267 -10.213858535268095
32.933506306291605 -6.0905680973334455 -10.340137457703701
32.94954359928442 -6.075944823491506 -10.431466532448917
32.964082466052176 -6.053855883441658 -10.496043435290073
32.97813014811021 -6.030918835929252 -10.557038837941485
32.988843943238585 -6.012925794763783 -10.605495027315856
33.00376664175185 -5.998256436644169 -10.683148883400698
33.016948839910995 -5.981357430449119 -10.746330424830772
33.02820718705149 -5.974126088340465 -10.819859398729504
33.03956322339242 -5.954257477876018 -10.872687137450566
33.05390526370939 -5.9296605743691515 -10.934517692179908
33.068529279695404 -5.895555619855237 -10.991254546882754
33.08206343281375 -5.8869047770078 -11.098409151129708
33.09416628271733 -5.872385912212454 -11.186875075876607
33.10779702354669 -5.851777891850424 -11.286028839932523
33.114965106664364 -5.840802113761636 -11.341374707897126
33.13060749199276 -5.801546280831333 -11.433269236006712
33.141334347886364 -5.773864234513367 -11.493761005081183
33.15341289766421 -5.7447410160927355 -11.595804944769876
33.15907021690275 -5.727475413985811 -11.65150341638052
33.164618534619606 -5.71023339720922 -11.7025796074373
33.1741487941465 -5.6770974045209925 -11.776963160800252
33.1820439804614 -5.647072820135869 -11.838788816845287
33.18854652126909 -5.620531340139518 -11.89267209158542
33.19290199277077 -5.598742743399718 -11.975284095065268
33.19435327541032 -5.584119201673607 -12.039869960535516
33.19446388451024 -5.566851401195102 -12.107495215814915
33.19562518647241 -5.551356779516318 -12.179168098643549
33.195696086302995 -5.53923176231656 -12.239772599003352
33.19595152615321 -5.528099965711285 -12.301903851903718
33.19548173286106 -5.519982302228275 -12.366120857682256
33.19632208564648 -5.511073409372107 -12.427014331736356
33.19677763810555 -5.50166205470053 -12.497737931326256
33.19745929731939 -5.4936128783245595 -12.565173093154062
33.196076121971906 -5.491199323401746 -12.636085698260679
33.19545926749841 -5.487132573070382 -12.705626074791972
33.195851126979676 -5.47903687093784 -12.770460659795711
33.20205206368162 -5.4489473522263765 -12.8707977130471
33.208463323362515 -5.416954197801289 -12.964568095604363
33.21290392553338 -5.3939081606590324 -13.027275920776088
33.215438176903056 -5.373406155263233 -13.096549103889116
33.21578475791089 -5.359281784361861 -13.16715674831878
33.21396276201369 -5.348565455509661 -13.23770939946772
33.212041034328024 -5.334675071289032 -13.31400759786742
33.21156095548972 -5.313819389985465 -13.385164987599207
33.20869881926084 -5.298945126518662 -13.456707103502731
33.1966807470947 -5.287286440323468 -13.568365310719969
33.18602524026801 -5.276797517385301 -13.654787793662548
33.17019728814076 -5.263375388812268 -13.760330402259351
33.15979858571868 -5.259022710271034 -13.81551708827652
33.14561625780408 -5.25169944409927 -13.883188183341456
33.12677705210624 -5.244585054999433 -13.962289741206334
33.1053505820069 -5.232417669220858 -14.042801897789474
33.07762305302732 -5.213635397799589 -14.138836437610731
33.04734903450968 -5.205072276214368 -14.220201201526478
33.02496149396898 -5.2005086803629075 -14.273694877711437
32.99303336592233 -5.196051776776875 -14.3420626664412
32.95384361236108 -5.194151261023822 -14.414288200989144
32.92022860793375 -5.190718190588937 -14.471160337768408
32.88666912816068 -5.180758670967862 -14.526441265783804
32.85541996230129 -5.178888464246609 -14.568930479329259
32.81335548985357 -5.1840558448392375 -14.624257556598824
32.77832809806823 -5.184590770912699 -14.667948444600956
32.71175138169068 -5.1843118915057325 -14.744585705255188
32.65886813747347 -5.196953657109235 -14.79768755638689
32.59847647870247 -5.196541965599355 -14.859756469768634
32.55835495033156 -5.199715694287567 -14.89761454145061
32.508195901494084 -5.203238634705318 -14.943782469633256
32.46511620747532 -5.200026320126598 -14.98415264140057
32.41803823540758 -5.198857618490882 -15.02671888963887
32.368109094519326 -5.198068310784658 -15.069408566390335
32.32017356644241 -5.196469667465495 -15.108846512824863
32.269222578395656 -5.189289135041541 -15.152736394138323
32.192028455215755 -5.181135345963774 -15.216173892791899
32.137435065583176 -5.184862153876653 -15.2576027825768
32.05987846003133 -5.195982836172172 -15.313950252858588
32.00958148108581 -5.212889076974118 -15.347632586029295
31.965073130456503 -5.229682704239236 -15.375946135023286
31.92470856805183 -5.2405598178873705 -15.40365728564131
31.857901649402848 -5.253993147298629 -15.448456759945229
31.81258731501103 -5.268009130774528 -15.477378480190271
31.741554684762963 -5.295096110561381 -15.520708801786787
31.699123920273568 -5.308420268203674 -15.547443152242336
31.655265336910418 -5.325214500459994 -15.573578829475421
31.61109418888746 -5.342006238419128 -15.599801807185248
31.567376797176536 -5.357477116823565 -15.625839623746602
31.525638388688737 -5.367319071149016 -15.651698175801863
31.467755943922267 -5.377024450761278 -15.68822593129016
31.405514353647174 -5.382614341288663 -15.72873361420624
31.34142637583218 -5.395998262065026 -15.768179775195778
31.274870523252062 -5.3906316376453685 -15.814014103546073
31.20779978533421 -5.386853717656086 -15.860220136866454
31.1304819155495 -5.38412456865399 -15.913063229372376
31.05575661437824 -5.398418273541235 -15.959244933971908
30.972667484702143 -5.4230181691239014 -16.008324994904065
30.891688215929747 -5.44048050202605 -16.058262266654513
30.834223691688496 -5.456395757494577 -16.09240780494883
30.76542829128853 -5.462745132265741 -16.13865511758641
30.71029629292723 -5.4687253901495705 -16.175200698766922
30.646785031716977 -5.471841653526919 -16.218631929437358
30.598305503158826 -5.468015922406773 -16.251900960922892
30.53855042431004 -5.4270144193889305 -16.30498415519807
30.471869873613603 -5.3977498919988065 -16.356918000208424
30.41152955135066 -5.375863662176755 -16.401927525869283
30.363431693401093 -5.341588239545226 -16.44075234272826
30.30723984084074 -5.312255898533847 -16.483478226061045
30.24422935963462 -5.286551824613852 -16.52875737500045
30.196003109474535 -5.2735356304252505 -16.561417763308356
30.15177409594067 -5.261597643765387 -16.59137374503679
30.09882528016243 -5.242333004088046 -16.627840333778206
30.021131247316244 -5.229884591592339 -16.677320433781112
29.92237514421816 -5.234221124711182 -16.73618236562367
29.865592938354826 -5.2353837902833975 -16.76998978273495
29.80920247637749 -5.235659625007294 -16.80361789997328
29.752136942838277 -5.2381173499784 -16.83719396155078
29.69573715328747 -5.238437403834936 -16.870560737782412
29.61009751540846 -5.236186083997326 -16.9207703217756
29.519141852451746 -5.227855861582044 -16.974589773244393
29.447922075926353 -5.234717844660157 -17.01424733716737
29.367807553524592 -5.239478771222681 -17.060297986845097
29.29915106202482 -5.2565692638490376 -17.09795387418951
29.243298839043753 -5.2720354895988155 -17.128757815430856
29.191887265331182 -5.27686105610793 -17.157581900903875
29.144238761223463 -5.282580768815602 -17.18351341685567
29.08315952366557 -5.2872695636787626 -17.217311802604776
29.018273579415673 -5.294047363406829 -17.252851626995838
28.951647488827092 -5.293984757563666 -17.289378583044723
28.907531282846488 -5.296422525086534 -17.31281428682234
28.81313885607267 -5.304330047402821 -17.36378056603483
28.732371470324896 -5.2902242837312965 -17.40651105868004
28.668308731585117 -5.278526175584823 -17.44027860423632
28.63355103916276 -5.276021610709604 -17.488756753344024
28.606428127361355 -5.251634905039903 -17.54980350335575
28.537136362089342 -5.2117709929649365 -17.59304297764756
28.48229181165982 -5.186207366132466 -17.63229077121016
28.438016713033658 -5.154750836281126 -17.648876571254736
28.373794737794366 -5.1116000340113334 -17.686230737455812
28.32391091126135 -5.076836447557594 -17.7009463055823
28.250292462840296 -5.086882108889278 -17.72223153454852
28.2018653053788 -5.087492371091384 -17.749715334079415
28.157493698170896 -5.076798395463711 -17.779984917976456
28.09499141439963 -5.06622544587073 -17.82304162435941
28.052869034587626 -5.0553089513593354 -17.85273541994769
27.990759028036134 -5.015567081081874 -17.899906729197774
27.928777197274638 -5.044468569632766 -17.936315373324387
27.882235269356677 -5.041942212264255 -17.967007577720782
27.811645536307015 -5.056909780179598 -18.01000121583096
27.766534688641958 -5.072857770725706 -18.03581003056007
27.72141051186245 -5.089139531569598 -18.061405089901314
27.676262296768268 -5.106040803355688 -18.08657998220764
27.59829112781318 -5.142503240319421 -18.128104114877804
27.54477039802514 -5.166004953560247 -18.1581568609543
27.494273875748775 -5.176687165519194 -18.185432542609128
27.42218141531879 -5.194256419177307 -18.226026243735312
27.36278058000144 -5.192377896899085 -18.26184303013795
27.318637457422067 -5.19317504145609 -18.288693591175605
27.24675204965317 -5.20068342080057 -18.32933431841053
27.18584533645324 -5.203877902726108 -18.36393861590273
27.126715202334857 -5.205544953893106 -18.396375975826114
27.07594700602119 -5.219555244891799 -18.422017990274412
27.006148861752163 -5.256913721287878 -18.450456611222435
26.94756798442221 -5.282823079741327 -18.473175166801596
26.84009552932654 -5.327477277982625 -18.514381414303443
26.780509324704642 -5.375878642591045 -18.52843348567917
26.73491483008237 -5.401969503355588 -18.541160568822427
26.665743612789015 -5.444383963390107 -18.557491494313147
26.605491104086177 -5.468707406029636 -18.574072008396893
26.52363373861701 -5.494405416721511 -18.595771496643753
26.434720814997565 -5.528014795675492 -18.613103194990988
26.38270291820638 -5.544415641213986 -18.622129081551126
26.32689775042765 -5.5681636289838465 -18.627561803325396
26.25007285290522 -5.60987162302892 -18.62693242126348
26.171208489126204 -5.637454676531627 -18.627405662287657
26.119543487231294 -5.655132307087177 -18.624642146951036
26.065321100301325 -5.673449651935883 -18.618927238971068
25.971539043943196 -5.700319080720479 -18.603158896439986
25.89215790831753 -5.718558573519466 -18.58491949825157
25.835127585552815 -5.730118294016695 -18.56929337766604
25.77713838470023 -5.739763110399455 -18.552719670724382
25.718525099121077 -5.747063248977818 -18.533779544965213
25.659411509513646 -5.752548354477212 -18.513075361060242
25.56973971847386 -5.757307501220487 -18.479216350743343
25.479444677107768 -5.759944955229768 -18.44138352138828
25.424281103482674 -5.76270463819713 -18.414389056809398
25.36198500104092 -5.7703033338080045 -18.379043931608475
25.30334490345629 -5.775018525833785 -18.344704655595745
25.245188527744663 -5.778672979873088 -18.309314685853273
25.18738899382573 -5.784026708570568 -18.271695773999372
25.128413303206184 -5.786120194951 -18.23346684533396
25.070491236717835 -5.790500647618586 -18.192084627480366
25.014364405405697 -5.795740057522368 -18.149930433991507
24.96106279066977 -5.807590750299408 -18.102189495421168
24.909384625932955 -5.820913632305443 -18.052888902615894
24.852928024755375 -5.83722457807792 -17.996169924090765
24.77403912177678 -5.841535147656215 -17.929140994909606
24.716159561153628 -5.8531688118161735 -17.870674074078508
24.666529699045395 -5.864503013950476 -17.81817996199034
24.61735730810909 -5.875864948024095 -17.764276937542615
24.56320561831343 -5.88730172229067 -17.706180107365896
24.516817082009567 -5.889021617488966 -17.660469079470015
24.461845399610144 -5.887506763579443 -17.61061349922699
24.418964025517152 -5.8922152038754865 -17.564798408305325
24.363104998186714 -5.897543579585328 -17.505329645384364
24.313704413013458 -5.900523096401818 -17.4533223859389
24.264022635114472 -5.90210142618011 -17.401821564405452
24.222556410181646 -5.8995794522320875 -17.362157589919455
24.162456733724543 -5.898019652158334 -17.301952428755495
24.115282830550715 -5.899851436979915 -17.250440460942798
24.044074771320304 -5.90365618405609 -17.17159669916896
23.988033820828715 -5.916438600711329 -17.097780808777216
23.93669390631712 -5.915535986430314 -17.04482957982648
23.886065310604412 -5.921878071543649 -16.982679635745413
23.839774830103078 -5.929290833329808 -16.924021945157968
23.79169599778035 -5.9344086716991065 -16.865191407286623
23.74995747399655 -5.939797906374784 -16.809939487448787
23.694479278465803 -5.946361727074687 -16.73209801460134
23.615330601886267 -5.9452125999402 -16.627524762997908
23.56458058682308 -5.956184508643918 -16.53999273228436
23.530004557267404 -5.961519185392406 -16.479416337242633
23.493603008501008 -5.967572901740345 -16.41254688335191
23.467042541156825 -5.977093605487813 -16.354092902208475
23.438859128894176 -5.985761225508581 -16.2929775842933
23.407641123844044 -5.992891628980674 -16.22619663013861
23.3839721289719 -5.997448617353006 -16.174915959248054
23.348924535056913 -6.0109254938479495 -16.08671459483692
23.319266245656916 -6.0151406227370465 -16.020654931543298
23.280200830756783 -6.013154865433116 -15.939968910206328
23.247944448542977 -6.011727483293095 -15.870682352968686
23.220275394654458 -6.012460399855605 -15.806506891358179
23.18257364702035 -6.037027878016761 -15.677905707499134
23.162881344779137 -6.047962938184865 -15.612043846323878
23.13452999122725 -6.0694274971341295 -15.506281357897366
23.10962240208591 -6.086289782549554 -15.414779806530698
23.09038386697156 -6.094546125712535 -15.350893208113577
23.07225305222744 -6.1025294142644215 -15.287649190435989
23.053819384747875 -6.112398140343155 -15.224664417862277
23.036559945756046 -6.122289486160833 -15.162410618772963
23.023383038124216 -6.134953162153378 -15.106851630174244
23.008079471505177 -6.150291805026127 -15.041715162126753
22.98976711554922 -6.170119381816008 -14.963010197358203
22.968790499785282 -6.177814067179522 -14.895302519162898
22.94457243305647 -6.191707005998506 -14.81128899481967
