414
-9.879138873441528 -14.529930700574312 5.070252320677443
-9.828508769473084 -14.535402314654284 4.968291768376392
-9.79875957416158 -14.533826140006418 4.910016145789579
-9.773819238703439 -14.545088184424333 4.857609484559666
-9.750826046833412 -14.558681688621093 4.802828916778348
-9.718877660260882 -14.553831719226334 4.717116810303598
-9.68350199949926 -14.536219036160965 4.641365071730491
-9.67031482954215 -14.563923851310932 4.581762711118032
-9.651944178996573 -14.582863606958657 4.510114630730773
-9.645652372147671 -14.599684900333525 4.460536546821246
-9.649630066010657 -14.638380395946744 4.390124515132881
-9.643875923248121 -14.661707098238399 4.313888400386639
-9.641575076191875 -14.679991351340572 4.258565172036374
-9.638306993611389 -14.703159217810096 4.182823683856612
-9.62735425866927 -14.725341613855711 4.091695698234781
-9.624861027459154 -14.748625357931857 4.034334709690987
-9.622069010511785 -14.773685078620584 3.9693789800303465
-9.614390455711282 -14.788031964025972 3.918051733363064
-9.609681114529554 -14.802825919929614 3.858912324437619
-9.604085569731518 -14.815659648117375 3.7968465631356176
-9.602207086673356 -14.829412557004186 3.7349591261590804
-9.601847519085366 -14.843539720958212 3.6467106646199605
-9.597468415946246 -14.8458375332512 3.578189241838179
-9.596302853119493 -14.84242998215515 3.528820285688176
-9.600262051306514 -14.84101303499001 3.475891727635191
-9.604594723580547 -14.840353026047978 3.420411431680386
-9.611656163991526 -14.83980237913324 3.366123417219378
-9.624771373404542 -14.83742142927731 3.2914058657604963
-9.643892647596877 -14.835508947324254 3.2004640450180917
-9.66356379987187 -14.838013126701476 3.1410861840345676
-9.686769092391048 -14.847197568640755 3.0914119343459445
-9.716486327108049 -14.859497928681275 3.035829461622611
-9.741910712769787 -14.867058430441226 2.9753018373191837
-9.766893360419845 -14.874386160871182 2.9168897499683135
-9.788370562927414 -14.87805201400905 2.8673337848126357
-9.815942800478863 -14.881842697192049 2.794862430305616
-9.8390092234203 -14.881689495521908 2.7318458347168972
-9.867310394495703 -14.883820210280696 2.666630799390574
-9.8949432233597 -14.889558500469636 2.6023898428937793
-9.923240927952259 -14.88937651541918 2.5373173186704436
-9.95394663606791 -14.889896393269236 2.465213309563283
-9.9941371144855 -14.895987191666336 2.3844365628589594
-10.03792808715132 -14.895212462046196 2.2972534230946104
-10.064829533924394 -14.891546621594678 2.2343032339024003
-10.090360288142042 -14.886350482200669 2.1821029120296096
-10.137267523883159 -14.89148997152563 2.109892908756187
-10.176392751011845 -14.891208711697313 2.0491678933456408
-10.227717260790381 -14.889235908524348 1.9681332300844057
-10.272587490204405 -14.883457499715963 1.8941755654026347
-10.31494813391993 -14.865246090658324 1.8098053001531058
-10.357023218980562 -14.847111171873397 1.736855306134867
-10.423227008674479 -14.83243420142703 1.6499758845214405
-10.536054170616598 -14.840191762063906 1.561304276118582
-10.602448471533286 -14.802703652706441 1.4654832785559702
-10.671659008897176 -14.768469847049314 1.3832816568313095
-10.718591150280972 -14.747671777857445 1.331431298613631
-10.76895591498451 -14.72272461127261 1.2767688425805135
-10.811331666809851 -14.698616426663552 1.2272424331807326
-10.854106950964894 -14.670350876327618 1.1794189920327245
-10.910110368510836 -14.646316382468981 1.1273448991792323
-10.946703613772208 -14.634052976209926 1.0949091321586906
-10.983916300814823 -14.61795515250732 1.0641260189014154
-11.052729667618607 -14.58898535242248 1.0061291491956599
-11.108397257166475 -14.563523658757312 0.9565436534157543
-11.187280130354642 -14.529932296870488 0.8936070522127562
-11.24665537402651 -14.500580692767908 0.8438136292570055
-11.293307453766552 -14.473634177246673 0.8044291569405502
-11.343529799968728 -14.446661063571117 0.7615545966566506
-11.416177272020892 -14.409749653616093 0.7048049240692942
-11.45153206889455 -14.386425511309518 0.6736308630294561
-11.518045850217183 -14.34194076601451 0.6147137958115243
-11.577094379050601 -14.308638185896772 0.5685211972201039
-11.617270146745248 -14.285770569227783 0.5381398195891975
-11.670836914136203 -14.253221670078112 0.498025777852825
-11.733621780827114 -14.198286562687237 0.44329386801180615
-11.784913667393148 -14.16920825283151 0.4165192734883618
-11.831817701472211 -14.13954561780871 0.39570266473698634
-11.883557084909619 -14.103110284332853 0.37409679641128335
-11.932337441849391 -14.070710878394479 0.3655681568640752
-12.007234474728133 -13.983298954589742 0.34585253769210933
-12.065619065012068 -13.912408096633818 0.34083525904615186
-12.105794210361683 -13.870615346607543 0.3391795890493663
-12.143451964520679 -13.82626917996977 0.3385080775949838
-12.191877186195104 -13.770940199113824 0.33065091533530033
-12.265482577795318 -13.703828773501854 0.3093975820180521
-12.323987485544293 -13.653714386474483 0.2838869304654583
-12.395669960557935 -13.597778701783653 0.2512225914193964
-12.423943656418617 -13.559921674930433 0.22787332071557742
-12.455743097308543 -13.527891000761695 0.205606275571399
-12.496646344109816 -13.491825266516567 0.18180558501416755
-12.540619862994536 -13.456943552917789 0.15792862159307308
-12.579689802693181 -13.423409503309866 0.1401377820250005
-12.62077841640404 -13.387958648857584 0.11584779368503462
-12.663684151001217 -13.346868061916464 0.09584388871520222
-12.71659223654849 -13.30100171676309 0.06410121573310867
-12.767478955212837 -13.271675498882232 0.040811011353497406
-12.840651726903406 -13.225083957721317 0.008661350092087794
-12.905198714950284 -13.167204636486982 -0.0334248233040082
-12.962176595238425 -13.113245781688512 -0.07599872239043215
-13.026164438338327 -13.069671548548225 -0.10341962383409964
-13.084880128324109 -13.020055810976807 -0.13305081845896805
-13.135148780620439 -12.978438592809216 -0.16216510695576325
-13.174895396544603 -12.941167977951917 -0.18498954501120846
-13.215140157175806 -12.902040345975998 -0.2078200227791509
-13.259012544236935 -12.853289834902359 -0.22817467935777813
-13.310700529276987 -12.796643101168726 -0.25863245586941463
-13.360385583078255 -12.735078442219077 -0.28410471111655067
-13.412786745644818 -12.657824079619921 -0.31448841643070224
-13.461301088990794 -12.600092990772236 -0.33836280071327973
-13.498276990365733 -12.557691806645678 -0.3563134090065301
-13.537278042081265 -12.506284400939151 -0.38115903744278956
-13.572993128106956 -12.45638706090714 -0.40395867828694243
-13.62092379464967 -12.379361424340964 -0.4344411868389635
-13.67012825783257 -12.325344594221885 -0.4552397481317376
-13.720418707400977 -12.276990761717137 -0.47395052179594543
-13.767684046074626 -12.229726912738009 -0.4894889886651068
-13.812128620208824 -12.183337712408406 -0.5021531484523285
-13.872721120418225 -12.125172618075645 -0.5210008567963635
-13.928155175793043 -12.075885756359945 -0.5294076957217593
-13.99548680998354 -12.020680663106898 -0.5368240904563262
-14.062588068296185 -11.969945224163297 -0.5410592460209314
-14.117909921867685 -11.92540096933758 -0.5407212236834598
-14.169980392495983 -11.86937124713591 -0.5380716285773701
-14.204841484679738 -11.831626483249288 -0.5336631695504863
-14.238578568863744 -11.791322920504815 -0.5278499795064526
-14.289239907541639 -11.716963512760561 -0.5196248726613719
-14.318714390927905 -11.668485093054635 -0.514022258131491
-14.352075952009859 -11.620393884642997 -0.5031090687965722
-14.38651892032685 -11.570573647788724 -0.4925879722352233
-14.427178419517357 -11.524464767549247 -0.4785596382098207
-14.463359585944183 -11.482916793064152 -0.4673514349361909
-14.4913793367555 -11.440133076976327 -0.4554704638727127
-14.520181064798173 -11.391390367978815 -0.44269104299866946
-14.558864477514724 -11.32514015891661 -0.4215596839496074
-14.59861370743476 -11.262734131165551 -0.40327403725773436
-14.652319217993497 -11.181551393424087 -0.38119659342507095
-14.692746846663312 -11.103148979159759 -0.35671520670450896
-14.729544751630876 -11.038075299984019 -0.3319138459333102
-14.775743537664091 -10.970560552648571 -0.30737981102797374
-14.831580732525481 -10.903793052491682 -0.27932438891585676
-14.893625349409213 -10.839923316502329 -0.24683180776169866
-14.97100839341167 -10.77615055739393 -0.21187834122038218
-15.038272898693116 -10.740943741285605 -0.18553292089648465
-15.108758060600316 -10.709295402151767 -0.16146627354561804
-15.156539770284446 -10.681735045412676 -0.13932485602213873
-15.222448503650124 -10.632154872041152 -0.10122097067017588
-15.264659639948695 -10.587229375565549 -0.07245079999677184
-15.30064340437819 -10.537396940729852 -0.035840224779975394
-15.344348511954994 -10.486381862085253 0.004806397683988273
-15.409908743948417 -10.43038117148502 0.05359381094238369
-15.48473185248402 -10.386795099325337 0.1008157697980101
-15.555648911825404 -10.357127922255735 0.1424892198321137
-15.608365079833906 -10.347670791745863 0.17203188869043018
-15.664108990267549 -10.340087446007704 0.19820656725269803
-15.753673053440938 -10.35167651081338 0.22234203012265397
-15.826834589065033 -10.366669787349256 0.238431763870266
-15.882058903653029 -10.351201779835403 0.2808870079164114
-15.921705217085176 -10.33370388855274 0.3194986317287354
-15.968377435564362 -10.319110922005429 0.35874928745024715
-16.02577477318847 -10.308726664612124 0.4034316159495921
-16.076004858314956 -10.299892988992198 0.4497554693638586
-16.141008850507507 -10.285388549736759 0.5129082435410526
-16.211313376412896 -10.266575244412085 0.5873713831321945
-16.268416388825017 -10.265824447102041 0.6341546245093577
-16.311602465262283 -10.263089020480123 0.6811049701292395
-16.361626673005066 -10.264047232158116 0.7339249800981227
-16.415890999559743 -10.26958975428721 0.7884109202687686
-16.46029885072663 -10.280704080260797 0.8174461503700403
-16.504246019966068 -10.291058858615983 0.8429355421477185
-16.5489531730311 -10.300170025787622 0.8663413510863789
-16.603103628106275 -10.31304735867386 0.9003759005000775
-16.67297471983067 -10.314942862737578 0.9647754929194265
-16.701625208370682 -10.316681999802107 0.997576674661139
-16.7363727017502 -10.315389014155919 1.0336861325322335
-16.78902306336633 -10.309623526555914 1.0938594323885509
-16.86201312776022 -10.303677044731977 1.1766376846957352
-16.909141414209113 -10.303999007037564 1.224156856516042
-16.951226460059104 -10.300911463147685 1.2669886385313402
-16.993605301644717 -10.29756181311772 1.3126435511743368
-17.04012515008937 -10.29557961832425 1.3503295529510364
-17.080387691993913 -10.295633970834832 1.385120231835626
-17.13169919926864 -10.293033440696487 1.4317765386868198
-17.194875821379398 -10.283941799189652 1.501823034474314
-17.23900928030145 -10.271877117656327 1.5613799967964939
-17.280554098520916 -10.25828785820125 1.6205270759053922
-17.333014298799927 -10.243552017040823 1.6952026060689454
-17.382741421139258 -10.226010088681193 1.776069795862905
-17.416063072370836 -10.211499231188785 1.8367481771870962
-17.445859593718424 -10.194383602593788 1.9009901225701116
-17.46595991528169 -10.176633861967659 1.9565892189245329
-17.487582401205312 -10.158361077016714 2.017491343962482
-17.517088476773175 -10.138877502762234 2.09148694786379
-17.54049940168728 -10.123194786644937 2.153757963307287
-17.560791069715574 -10.104393940196868 2.21436557285201
-17.574396120672773 -10.084231961287404 2.2803726286530592
-17.58771084275985 -10.057139350679588 2.3631301364442434
-17.602381188042852 -10.041458605314364 2.4238527708650386
-17.611083655184757 -10.020401855665906 2.511241012918089
-17.639043555448676 -10.00852652128857 2.5768789514675996
-17.659955162943145 -10.00382659650393 2.6261278902838034
-17.689848641569803 -10.000027498317053 2.673631696128349
-17.724005565574604 -10.001537707354679 2.7187963355906524
-17.787521695135112 -10.011814145926461 2.80051021396362
-17.81697519461981 -10.018739333703 2.850373332816342
-17.855053126804282 -10.030965170012013 2.9314587582900495
-17.890976143041392 -10.0475150310833 2.9976116946338367
-17.958946671012523 -10.097681553798896 3.059789802041986
-17.990964816540192 -10.126978047539474 3.0989734582341173
-18.010276429303453 -10.148818532353651 3.1355915619450228
-18.02454090863471 -10.1572040625007 3.1867319711581557
-18.05408540726521 -10.161457853699424 3.275317603410376
-18.086492052212378 -10.166416564219844 3.3663134492906837
-18.102777526512266 -10.170984429844438 3.422472940463769
-18.105250018797435 -10.171924992454443 3.4873654007883053
-18.104172706129834 -10.176135249541218 3.5533997839551104
-18.11435522330428 -10.190961885460382 3.62633387276274
-18.1333275372894 -10.21069203996801 3.7148027801994674
-18.14932750439641 -10.227740632818662 3.7798298135308324
-18.169671646177942 -10.246545530407463 3.8406440451016346
-18.186936995280615 -10.265103049935561 3.9034587982821725
-18.20243971686653 -10.28072852669099 3.9683285844171374
-18.21511076667429 -10.300719267530333 4.0347585482919905
-18.226579227599476 -10.313936152540144 4.0962201245416106
-18.234721790455364 -10.330170942992229 4.1536684929614305
-18.243151497105707 -10.34406392505025 4.213467961957453
-18.252456595903016 -10.359055252974443 4.274193284542764
-18.263790974435533 -10.375152528859562 4.342454223471742
-18.275970004477667 -10.3935629772437 4.395735953166166
-18.287625547393368 -10.41878997144373 4.477680841398546
-18.304856425130183 -10.447320247053796 4.5530615274172215
-18.317857832814354 -10.472733671475215 4.612945443520148
-18.327269713274543 -10.501992380690723 4.692409384207992
-18.332813091137144 -10.516990958239486 4.748860414384251
-18.33513726480017 -10.53418608268159 4.8113541877640715
-18.342222770763133 -10.55611930898164 4.8866827880382475
-18.340856290905194 -10.581456157472793 4.950126081521341
-18.3383522625895 -10.609394907691055 5.00754746788597
-18.333052589744344 -10.640327399437542 5.062393571801063
-18.320353787802038 -10.670115742729177 5.117160257364316
-18.31153806828585 -10.70602510832995 5.167720857832863
-18.29673319365298 -10.744936302661042 5.225672708816874
-18.282460850730832 -10.780736716875214 5.282291661576807
-18.253251816255645 -10.830695630040754 5.371686325563114
-18.227548169673252 -10.864794404640424 5.439127876455733
-18.201317808558514 -10.900031925993229 5.501934077309168
-18.173923321814264 -10.920883567272575 5.567739241758232
-18.153748987728658 -10.950490046856292 5.611053970717827
-18.126760200046046 -10.966378370084541 5.670394809938826
-18.101500696667035 -10.977068827356533 5.730070804504103
-18.071338290990845 -11.004196485654148 5.798134016951891
-18.040273408386913 -11.026329758220179 5.855432614182594
-17.994408775374954 -11.062296174820755 5.925794883783568
-17.9565177001114 -11.078830396335139 6.00019736978058
-17.920265797849627 -11.11276881042459 6.03739550937521
-17.881528903565467 -11.119503859520936 6.0794594618328395
-17.84383372367492 -11.120301406918639 6.127184967909
-17.800615654516008 -11.11206796625418 6.168244723765139
-17.74459804369979 -11.106225827229352 6.210355525281792
-17.694982901948766 -11.101919600021525 6.249200749342742
-17.64368055716892 -11.09650118880397 6.284276207182871
-17.600701132117898 -11.086345325648264 6.313935624419147
-17.519058934195876 -11.0626878262808 6.363165575527174
-17.457418477100738 -11.049685389183729 6.399269684526364
-17.391615541628166 -11.032277415383582 6.447249551429636
-17.33834877414865 -11.005353961794711 6.496790331374984
-17.295433740426773 -10.986008242431804 6.5359733462479115
-17.23042470214451 -10.966337725576242 6.598642719474145
-17.15978065720842 -10.981005724711334 6.652784622626933
-17.086479693116853 -11.001676270933906 6.715573829585616
-17.042735268429578 -11.01791586948222 6.750912323338356
-16.997116851534038 -11.032057965373586 6.793230010357786
-16.94880603567723 -11.037715809509944 6.848167440445331
-16.909590213326933 -11.042904063548722 6.893360259176469
-16.850914824162256 -11.057823483312692 6.955030419537798
-16.79915470248884 -11.07310822556272 7.0036614642016355
-16.735880738621283 -11.093620977824294 7.078154100485933
-16.68481578401967 -11.112833922862983 7.130188343631608
-16.636312393526595 -11.138067352515232 7.180629922920613
-16.59528587370796 -11.152541322112533 7.21991768779531
-16.546372894022962 -11.170354450731633 7.265460785646106
-16.466665182662737 -11.200961129780588 7.336571577342192
-16.410032751927776 -11.224094861817317 7.3920410699443915
-16.364131318167964 -11.244096722678695 7.425677211875951
-16.309664143456345 -11.265254889286847 7.471914675821119
-16.26514734370846 -11.282349485518267 7.505436381540242
-16.21161757551636 -11.315421870507294 7.534654082844306
-16.156866811991097 -11.352567975349082 7.565588983099912
-16.114638611356202 -11.383976444006688 7.595299679367511
-16.050165184728353 -11.42100884469587 7.63978487468771
-15.98102349367527 -11.472575325509858 7.684117556923106
-15.912485659978433 -11.498689246492777 7.740837171884052
-15.839586114597628 -11.577925033750144 7.785012811288774
-15.771616101254105 -11.69405816361915 7.797494822574079
-15.709557672349 -11.76705556690387 7.8213057809175845
-15.646077252311215 -11.852345888712723 7.824350082096372
-15.60272794822264 -11.894526225254818 7.84544863724751
-15.56129390072418 -11.917130035159854 7.871995358500036
-15.50447440259152 -11.938441968627682 7.919889651246199
-15.422359315858923 -11.982900558333597 7.979812299371724
-15.35879123326012 -12.00271814049368 8.037238396879768
-15.310956014536572 -12.018026546948448 8.081729774964685
-15.26823878548046 -12.0321136678712 8.123171231349676
-15.228737167159302 -12.037707181050159 8.16242979460737
-15.175588747125296 -12.048449214788395 8.213153242716459
-15.126345968155622 -12.04584800757608 8.268697363861616
-15.093595610749574 -12.048142180351665 8.308955681752089
-15.03665821307673 -12.044019282337256 8.369878337764327
-14.991774247414005 -12.043004507617994 8.41475169993809
-14.930486215751877 -12.053955117926723 8.479299004975225
-14.880795684142079 -12.054538379331799 8.52604702333474
-14.815362852823952 -12.068471392409776 8.583142358784023
-14.767896778070726 -12.078234426428281 8.627775462013805
-14.721167439414472 -12.081495802312645 8.670476473527351
-14.62541283592586 -12.081356300397722 8.74038786126826
-14.55136011861984 -12.081456220638891 8.793355423735708
-14.479587127651932 -12.092577164207501 8.836762878021599
-14.403865646114618 -12.102504776410402 8.878603113878125
-14.304991901200593 -12.148531645141741 8.927211435323805
-14.234171106634257 -12.179025262751836 8.964090439781454
-14.161532873140548 -12.202274023214422 8.994263627182875
-14.090902143259303 -12.226283900536622 9.024487455923055
-14.041300325605821 -12.25106973632328 9.047937116508145
-13.980407523219478 -12.276047217152502 9.070402741266111
-13.923735867960517 -12.318673802036262 9.08893033263999
-13.873599620341992 -12.366779906889647 9.108357862279803
-13.82310992413487 -12.441076127295272 9.125572907135105
-13.782620963052171 -12.494186361743914 9.142136374523872
-13.741612750394552 -12.556209767329275 9.15016584657483
-13.707022403829853 -12.607540750637277 9.15776372003474
-13.671005129061676 -12.645711456011814 9.156665062663706
-13.607225474407965 -12.698907746679446 9.149538359212745
-13.552111000633486 -12.742648446709357 9.132980104472345
-13.500573102241905 -12.780910896982142 9.10549609208815
-13.446166585808374 -12.81125573957743 9.084093408468494
-13.358202322377817 -12.863571661724531 9.043760866132331
-13.3029686550199 -12.892912261378203 9.02501624595073
-13.254777391568123 -12.929727150969196 9.000996505372854
-13.207428642794039 -12.972037330779973 8.981968740960593
-13.15398201862224 -13.03112291635411 8.958725868400577
-13.103105927054482 -13.085828098550422 8.954974629512712
-13.053953950036782 -13.146287754918696 8.967230114181682
-13.010574275872743 -13.194738826345162 8.9826747386706
-12.962144510798 -13.23951748290773 9.008377863608121
-12.913429390901317 -13.269488011092843 9.030114421966186
-12.868822612029458 -13.301426520528807 9.039224646802722
-12.809900557673302 -13.33492173753115 9.04453954277987
-12.739488473574944 -13.358973122847935 9.047873103290005
-12.640980723246201 -13.396310613451313 9.010164062482499
-12.539559862440122 -13.413553273459335 8.971826588486767
-12.465313964922327 -13.44859744560151 8.913707503926354
-12.39525624650862 -13.468525550269856 8.88335258655145
-12.336482402871344 -13.498400101579861 8.845311521802671
-12.283054320461464 -13.504475677451463 8.831870827926277
-12.178947894918984 -13.536455325089282 8.75688758504262
-12.131375325880105 -13.569963427789936 8.700751423639709
-12.101087021580762 -13.591901729533927 8.658172106669983
-12.0720220363519 -13.62503177039807 8.604820451904505
-12.031664617542168 -13.65748043226796 8.557786431193325
-11.994662046702992 -13.683957438314117 8.511319415630762
-11.940120651934635 -13.730591991067993 8.452841512468101
-11.89822871203015 -13.785003499341677 8.386271350257797
-11.883328102952515 -13.834694565069931 8.336869783412475
-11.87248050700055 -13.88504116024199 8.284841006069588
-11.86584701886084 -13.936561243706809 8.234515762562758
-11.859281985068467 -13.984536923169458 8.18308180988241
-11.852361788253608 -14.033356359305738 8.132236856359167
-11.83641233012218 -14.080666036435737 8.086667725419854
-11.819823205929783 -14.117649411183653 8.049449605650043
-11.772878257939032 -14.12306196170195 8.017205980017739
-11.73498532338894 -14.145621408929152 7.980903226940504
-11.698479196932485 -14.182487433624573 7.943676141403071
-11.649341860260726 -14.227069925101834 7.907678896054285
-11.580761110650688 -14.285710897486688 7.859176433960562
-11.515530027074327 -14.298527588894313 7.824875184871787
-11.458451634533784 -14.2935958477721 7.785059447519232
-11.395838580408553 -14.316505197789848 7.7161303624000555
-11.343324548845057 -14.33867930569788 7.643797144351475
-11.294849497234779 -14.336887844756347 7.5814613232987265
-11.258005694003021 -14.343546652438896 7.5250927244879415
-11.222260721737566 -14.346521828983061 7.472748701441476
-11.162722565174333 -14.351835146605584 7.376815241692021
-11.115290914215798 -14.37717386065895 7.289169051284191
-11.07164413949136 -14.385352054767253 7.21185349191648
-11.033190871360535 -14.385108849872989 7.139637775296294
-10.985340615807239 -14.36823251127943 7.05050151487876
-10.952178201390847 -14.389218872231293 6.972408993033903
-10.928104458570225 -14.409155064310685 6.909178117020081
-10.909857727635654 -14.420877827404432 6.852867253219999
-10.893826232318201 -14.432729580470141 6.784969417913662
-10.885375663543378 -14.437391504038821 6.713918018595828
-10.882220788340135 -14.45316774275037 6.632553918917542
-10.884213523081776 -14.471338017790146 6.550732362634471
-10.884874245769463 -14.490787685323223 6.460680539399484
-10.880148050506383 -14.489072567959667 6.368927266772077
-10.861938641224166 -14.488652285860347 6.273210992412808
-10.846465112005287 -14.478964474187098 6.201110621489087
-10.826772364081126 -14.477980866226591 6.135994510589483
-10.788332159100179 -14.46829261619698 6.036942354222194
-10.752774274543842 -14.47115394093812 5.9717149295836025
-10.709369489714032 -14.48040963790396 5.9062253841947685
-10.66409033907549 -14.498237645869253 5.848439872070039
-10.612547275638118 -14.511788972195184 5.796885565708764
-10.540846641873543 -14.521692887635083 5.735652137948869
-10.48288052874144 -14.513475585197021 5.689215473886324
-10.41452950743935 -14.50463810385645 5.635521196801352
-10.3287461190521 -14.506455260870887 5.566992734568633
-10.243395209783813 -14.523618827756401 5.495775851671035
-10.187717156050294 -14.540212162907252 5.4461156452336
-10.137895267593532 -14.553191377592857 5.398196612936393
-10.071877472101452 -14.559733546196867 5.334669818298832
-9.99770839588718 -14.550061016416937 5.250089337593768
-9.965590198743191 -14.547431481971746 5.206801383200248
-9.928645999976174 -14.54033606862744 5.152294986951337
-9.906640711726592 -14.535663917965596 5.114177090061621
