308
8.526931866947617 -13.102767987864311 12.200298552340016
8.491321086442731 -13.065617494513216 12.177596463558725
8.457716215213605 -13.012305408131386 12.152705765772161
8.423444395620912 -12.966751861566694 12.13117555708309
8.375740142033134 -12.923996478152452 12.106252582897667
8.327892150537526 -12.901360582007834 12.08732092752648
8.246479286469594 -12.87608460468818 12.060222388442206
8.186515593416289 -12.835998373719663 12.038114710238382
8.131305199545295 -12.799592144180242 12.0189742290137
8.083487597102025 -12.771499074818854 12.004837885211604
8.02630760087817 -12.75820200744761 11.990889216261163
7.97951799739467 -12.74097983773025 11.979643051537693
7.934502825084775 -12.720333519065774 11.96852690712874
7.886752712089231 -12.702304354070142 11.9578769190862
7.788016161866133 -12.685609005141904 11.940593322189542
7.734930832104578 -12.685891324684265 11.93437553297154
7.678758743616318 -12.671988880569122 11.918243392527941
7.6249456474719794 -12.667316571773263 11.902919733164165
7.570643304637419 -12.671381063227543 11.889847412486727
7.519157814708161 -12.660733644976625 11.878159750818284
7.432824634561828 -12.63823326836534 11.865161530613754
7.379920011530369 -12.614053553678842 11.867559682525084
7.300637368955695 -12.586058696973211 11.885520623409853
7.225486538176317 -12.58465646418492 11.914264305690576
7.174624518286616 -12.57766113443467 11.937732155446948
7.1335826522551935 -12.567249891765046 11.959076172549192
7.068500151884977 -12.551383642859205 11.994923537110537
6.99598522917598 -12.542127028999667 12.039840509070117
6.948937568143372 -12.535985094499111 12.069311940100182
6.877895617005264 -12.53396329533317 12.116274829872967
6.8306686477334635 -12.532284148384003 12.148650453618
6.770054659524491 -12.522893119835521 12.190841475557384
6.716672422920802 -12.51280048699074 12.228706621594263
6.629020725933384 -12.506503490331344 12.292016713112083
6.583480197036809 -12.508098001164411 12.326872970012648
6.54411281549883 -12.509314078692011 12.358132363519449
6.478270582099367 -12.508010292230482 12.409599875494763
6.402811439124849 -12.49963509603842 12.469016694251124
6.341128456503447 -12.495468123271571 12.519648103040034
6.269215497133298 -12.502724374819396 12.58059348387481
6.200249078754031 -12.483821193977471 12.636670624609241
6.158567653248562 -12.475963145147764 12.670996667592775
6.104378230385696 -12.477285877510544 12.721092277321166
6.060890944915497 -12.477854114889196 12.761337784144004
6.023163889137893 -12.47829750617905 12.796457196770643
5.962183330033981 -12.480649757731543 12.854416148311369
5.917802874069177 -12.483708030090586 12.896972007120386
5.865869327574461 -12.48567361706013 12.947344044057012
5.822284668246815 -12.479195642969461 12.989276154405154
5.775912711416502 -12.467911560186254 13.03502617990678
5.735251389770725 -12.4605981612791 13.077854483754322
5.695448064401693 -12.45600837487381 13.123722714407347
5.636955580436189 -12.447524006049761 13.196272958627823
5.569022477751312 -12.427374365378116 13.291197075855159
5.522270044025901 -12.41765084535322 13.369557163793107
5.478251274461264 -12.411042709964894 13.45224778150229
5.438452507795611 -12.404635669163845 13.532781338840088
5.398788846196466 -12.4017689117565 13.624749530337155
5.37764482393291 -12.399672880292938 13.677139258740034
5.355843690381293 -12.39786159481793 13.736202221987611
5.334661381160957 -12.395971679296233 13.797017258387253
5.31624431415626 -12.391054979514838 13.850902681997766
5.293562436082966 -12.382137988972877 13.922876844418582
5.268207128842628 -12.368686827860568 14.013769642109526
5.24712939273219 -12.345196754924682 14.097605675663814
5.233641182559745 -12.333052700425588 14.14871645734608
5.217130589392988 -12.331853463645004 14.217610689732464
5.191510124828423 -12.312706916954461 14.334902376489381
5.173723747818252 -12.284274194099275 14.432099457504417
5.161978660640071 -12.274815470141924 14.49329845673186
5.15205951901551 -12.259502179802341 14.553549584987845
5.144286964355804 -12.24201348599721 14.605656978667739
5.135374035968074 -12.219675092697369 14.673200703598543
5.127388578433734 -12.198771332570873 14.741000401314952
5.118236139852292 -12.170775944391039 14.828201921993728
5.112142878237967 -12.152219796683 14.887718161840574
5.104793341427196 -12.138553801517542 14.946051513982983
5.085933673724578 -12.12127067812791 15.06297629032645
5.08240501041896 -12.08135971341086 15.132276003875742
5.077070046119453 -12.05844560397466 15.179502774671743
5.066107778522155 -12.050784986960997 15.269323511746034
5.059794607926517 -12.042432254856408 15.323952545416347
5.054760702181043 -12.029712922733903 15.388852750047601
5.0530273521163 -12.014076221816012 15.440796647144154
5.058623320055157 -11.968316397403843 15.503109745024176
5.060915553980958 -11.954381899177113 15.607329120772384
5.068317556986133 -11.940474214527086 15.676311134625404
5.079776791970702 -11.926898713485343 15.75680334482163
5.096607300651473 -11.93474314225109 15.851683577041154
5.113206401185351 -11.938681156033512 15.91298200660076
5.147410109856293 -11.918765008560287 16.00008928231743
5.166318483236361 -11.911549781024442 16.038224217382304
5.194885575836012 -11.900649119813556 16.09583447822688
5.224500470460623 -11.894118368435905 16.14448321552558
5.263416496143786 -11.886069482863096 16.205760537819526
5.311358766040851 -11.878114905000292 16.27404578780609
5.363863988798722 -11.874451301423678 16.344138059690813
5.398633847291731 -11.877548061380228 16.389325403262028
5.436383739314741 -11.882276437988185 16.438286583978776
5.4931141560906775 -11.892085126787267 16.509941739657332
5.565120738119622 -11.897955073552751 16.592979283625283
5.601177850165386 -11.900966485883492 16.633871355013525
5.642696771414335 -11.903837465511828 16.679942988615235
5.726184433918955 -11.90599543072332 16.768429292142283
5.776842943704122 -11.89700749160057 16.81809230844701
5.81929890272884 -11.891019565123713 16.859935263938905
5.876667822288382 -11.895775263835503 16.92017071579539
5.927487080958675 -11.904128456473812 16.977547033542823
5.971540364119286 -11.90981327109287 17.0262156316052
6.01171432071913 -11.916279404521589 17.071133406428483
6.067902537632272 -11.924506168332018 17.133836517631025
6.114611808834289 -11.931196276161696 17.189539341429654
6.155412433134656 -11.93685421862848 17.23817035362754
6.209495687562689 -11.93637098929051 17.300370663804532
6.25321173091652 -11.933393561648264 17.351231161785588
6.3045190976308065 -11.928877047504308 17.411975013034503
6.3650098786140346 -11.924001671564568 17.48287319362004
6.415586913007689 -11.920197009177565 17.544705446722798
6.468835383173404 -11.919802462522762 17.611273504877303
6.5102478686585785 -11.927265205132652 17.66673646203864
6.5403937615320205 -11.932647970640726 17.707586254028506
6.568700107017029 -11.934502488021952 17.745280399849662
6.600443420851859 -11.937164053109486 17.7867274604583
6.6853041192568154 -11.948729490312227 17.899360625441478
6.732459132568411 -11.942533314994769 17.952219062552313
6.793352721495174 -11.943616215404235 18.02619529027105
6.83264881874027 -11.941846107270498 18.071260435035814
6.879608095963417 -11.93772148079292 18.12252843828251
6.93214818477968 -11.931269278348386 18.177289764306597
6.967341602837174 -11.934874580591122 18.21743286322777
7.022432896579873 -11.960362901563549 18.29019927478504
7.090373015164311 -11.957035586127207 18.351402433733128
7.13826020027168 -11.979570925917658 18.406176999661685
7.18407521842929 -12.019733392323621 18.463371788731692
7.2291085765911385 -12.074072928863082 18.521261146133075
7.274013329572452 -12.106129735068707 18.56704068171578
7.361911460325609 -12.154383842173031 18.643197892111484
7.413062019640026 -12.216441807446447 18.698071268087524
7.45426843205117 -12.261474626514222 18.736820015043367
7.510009134226604 -12.304465159943138 18.779401659624416
7.531844066325294 -12.318736427651276 18.794301463817312
7.574857191426253 -12.345867564075794 18.822497155074682
7.672668704863084 -12.419376169308082 18.88138560844917
7.750398714236696 -12.456189916610537 18.917340269467502
7.8036166722875295 -12.483390977373688 18.939763605923048
7.84744581293043 -12.508997101179306 18.957778718585118
7.892192784016157 -12.542452278768579 18.976948130232163
7.938637412901355 -12.586005363722968 18.997832454893267
7.982390030472181 -12.626005462270417 19.015413249903865
8.036620279386135 -12.671713771310747 19.036026128138076
8.090598928338874 -12.71830332876385 19.056075838676033
8.157544919140104 -12.771600585501192 19.07879703601304
8.241461025604238 -12.814989623216286 19.09932209183443
8.290428389706783 -12.838379296550166 19.110239607415885
8.3709059120207 -12.872243477666537 19.125764138514644
8.420593868380411 -12.891805077067945 19.134749920743864
8.486050245875983 -12.922212157148769 19.145773322496964
8.545343230309697 -12.947163540600835 19.155264164727562
8.612830654698932 -12.974839943999777 19.16491965674597
8.67223897699444 -12.997555184434297 19.170812763753897
8.750188286840569 -13.02583499877872 19.180375394239096
8.8072892747448 -13.055093271391165 19.187189192452276
8.869601316551716 -13.087787186257591 19.193934287478488
8.939998540984593 -13.111005936299154 19.200420609314033
9.007099479114856 -13.159331927492321 19.20591098620349
9.066648192612305 -13.181380331351304 19.208998441557704
9.163327442709882 -13.203636718046324 19.2128769057881
9.22374150344372 -13.214731638927367 19.21327583225195
9.328620148049481 -13.257900813359553 19.215335106058248
9.40446993316143 -13.278808553766531 19.215770682184385
9.44140991170346 -13.327959418101319 19.217895724076214
9.514251565944257 -13.392758488105367 19.214867931947666
9.562072126827136 -13.426746292540185 19.212668431433972
9.642263393175572 -13.474500246346675 19.20737792961618
9.684249803799151 -13.525483024724611 19.204515563313905
9.736257437815105 -13.596372645419665 19.198748717759113
9.78678958029921 -13.66777808552616 19.192268383745247
9.836525318329052 -13.72854364525877 19.183439717774757
9.89920611568407 -13.807300567625651 19.173129277244257
9.935078696848915 -13.861256666757866 19.164891333755396
9.978965361683873 -13.927878965793314 19.154502969922675
10.02703320563608 -13.992715616347187 19.141153784628333
10.083417922510737 -14.081472586268228 19.12345597628299
10.170180453678817 -14.141213795642503 19.09698706698005
10.23430958860055 -14.18686809533539 19.07485087903135
10.284080936682631 -14.234052903216023 19.055227597376227
10.34813735016806 -14.299745700370405 19.02658520493682
10.430338321658517 -14.339711745662523 18.991439961669226
10.500952017222488 -14.37501867590848 18.95771159907537
10.561259212504222 -14.427060681340581 18.92315542620054
10.649074678011392 -14.452798824170808 18.8777138959645
10.725039533623008 -14.48125996159163 18.835811808535123
10.774977422962714 -14.50542914769681 18.80603135233883
10.819560165010397 -14.528088460329917 18.777038253627445
10.881762751968292 -14.56685508976762 18.733572977693168
10.95410815151697 -14.595965203472028 18.681297373695124
11.027879539773384 -14.635388300240196 18.62123407519291
11.085935679259073 -14.642466672226815 18.57955511216548
11.137827955274641 -14.664181385680864 18.53186830784857
11.214966655098447 -14.700112067634384 18.45369353178164
11.268418626942292 -14.73347723449614 18.38695107152067
11.305295975710536 -14.754380959681418 18.338544143105906
11.338002367665403 -14.769793642414394 18.293750613882956
11.379466639961624 -14.77813898985424 18.244083659753766
11.43523412690433 -14.792069882602105 18.167143895477746
11.481062114848495 -14.821746090002692 18.077994014326258
11.504355803301017 -14.835904649476523 18.030329400019454
11.529187396996708 -14.853369873076021 17.972961818227592
11.556732433777427 -14.865979550044463 17.913903980684744
11.58763048196742 -14.877240509643801 17.847232051444823
11.612012185079045 -14.886593589336435 17.790474964819996
11.630513506389686 -14.905967594455715 17.726963207132904
11.659173942303209 -14.91872899452071 17.648119246919737
11.693175129584606 -14.92565326174262 17.560639742889574
11.721198970232308 -14.92914137236331 17.484003627128683
11.73682473474365 -14.952581950506854 17.397670309083438
11.75526606133596 -14.958233779484676 17.329470521918648
11.773826826667204 -14.961485791223646 17.262547034754533
11.791384140700409 -14.963110847150357 17.194307567301347
11.809386686715783 -14.965964447924254 17.10698223758921
11.816408767942082 -14.979693983070497 17.027134970483143
11.820136455576215 -14.990744658004846 16.955455991301342
11.820995260396423 -15.002189310033048 16.878833768076216
11.820734156324185 -15.009154578079965 16.81597523886063
11.821882265820268 -15.009460495684154 16.75553830889726
11.823616791286295 -15.000426917198293 16.66701583992466
11.819482693090713 -14.998267776610989 16.61946752172918
11.811496926318345 -14.993150463799774 16.547032428900607
11.790679229459343 -14.993772685617152 16.456905630228714
11.751369765088867 -14.999329737072925 16.334761012741737
11.734272566161927 -14.998160442882888 16.282803438358588
11.708714601777924 -14.999620831369961 16.217674400774122
11.681112134509856 -15.001619509696228 16.152135145631032
11.649004535034877 -14.999427763510285 16.074675646726213
11.61247563006275 -14.99890845207006 15.994299368582976
11.574627347618687 -15.001172558918023 15.91780959142051
11.543335612390557 -15.003849043714508 15.857248161107481
11.50852725800587 -15.008643030934179 15.792079769554558
11.46249302455011 -14.994809023563695 15.683745659077971
11.412435655712763 -14.998184132934592 15.586936423979992
11.387878740898877 -14.99936585256001 15.537121433457596
11.358066343557255 -15.010838001863222 15.485775813616321
11.313039713380899 -15.031395760897416 15.407780266675676
11.27108851945825 -15.04615923193637 15.327810599618317
11.230994372599255 -15.061981864759685 15.250128906732943
11.17682606410444 -15.084833858141062 15.149925489444492
11.1500217674742 -15.098495409931806 15.10578407793691
11.120624882584458 -15.112715924255996 15.05819201617015
11.071869741489795 -15.122445631730018 14.969697121633079
11.030182416369197 -15.132959067940645 14.90430228933764
11.00185545395669 -15.133974258868447 14.85879228198224
10.978116949008147 -15.127706240205788 14.81430760212995
10.948496332920843 -15.110057161920809 14.754436246757486
10.890507202816586 -15.091847825730818 14.664608908754229
10.85789362134117 -15.0772969476254 14.615373651421695
10.829623798714664 -15.062337645402435 14.573201031331102
10.796261585366551 -15.04846767862066 14.530385662519297
10.746066545960879 -15.01447871992425 14.457829483729334
10.706000759508477 -14.974045462215177 14.395424480095908
10.674878818489496 -14.9484991516443 14.353493806234606
10.616727937111168 -14.919355647458454 14.288804254322457
10.590137706575405 -14.892816322851852 14.252401840831155
10.550934920440838 -14.85721314037823 14.201651655016882
10.510631347607347 -14.821936753164957 14.151878715884049
10.473183953176445 -14.795720020797441 14.10952871145118
10.422117512513204 -14.762184605069248 14.054418299149539
10.388847368373852 -14.733960924037783 14.016226640707995
10.347834958795573 -14.698653284848529 13.968227300451215
10.297361432053453 -14.653267722852537 13.909321169484148
10.234394602269024 -14.595787353251547 13.836034936521905
10.192437426964908 -14.562684989677452 13.791251198669315
10.146264863552123 -14.529179673823934 13.744109265027987
10.098461313113337 -14.498721201117354 13.697287062397475
10.052795663161966 -14.468917502103752 13.652740393184498
10.003457029678493 -14.431666123483053 13.602540663016345
9.959100666993958 -14.400208913119405 13.558388019691051
9.91198053083276 -14.369934550327956 13.513414358446433
9.87747492680759 -14.348027178318524 13.481640116242893
9.836591490762196 -14.302611574921158 13.432376288170058
9.774165988490402 -14.237608712170093 13.360762611424779
9.672253100497986 -14.181164700362276 13.270487737707882
9.636518640896014 -14.151019404267021 13.231775783270749
9.584621050728131 -14.144179515732963 13.199226141211948
9.548199218797368 -14.12508246911406 13.167087716032047
9.472237322645764 -14.10971879129637 13.114644747264567
9.387693699947448 -14.108730204302953 13.064537220408585
9.300361650116113 -14.112520294949695 13.015006545245097
9.218871414413265 -14.114080549804516 12.967098397168972
9.168857759624277 -14.095501001232487 12.92863632842916
9.129539303860785 -14.067138862142711 12.890808313245959
9.094931976061176 -14.036198761700696 12.859696210013887
9.064258778620637 -13.963685731369017 12.803773075366216
9.01896261963979 -13.930876102342683 12.762021564845504
8.96749927540359 -13.878188032708367 12.708451550066187
8.929440411463869 -13.81774113124434 12.66011277479987
8.896452398024703 -13.78007983606253 12.62485787586455
8.858025168514796 -13.738165205728766 12.585541659695455
8.81955213858237 -13.697968849487351 12.547710707626507
8.76425877363782 -13.641021598427088 12.495411552452826
8.749649059447691 -13.598448953742754 12.469752317761614
8.726472762006402 -13.535181442109712 12.432573744111782
8.702698905586843 -13.48058707316223 12.40012363655676
8.672386779683062 -13.42330534368345 12.364106860055234
8.648214226903583 -13.380821141118401 12.337414865145192
8.63152212256395 -13.330079182983827 12.312515099282045
8.612702211664352 -13.268833353233845 12.28384153530456
8.582634630399973 -13.207149046844933 12.252516848756724
8.55894869092893 -13.153875230560809 12.226798300515433
