275
11.244781584641519 -2.45049068259277 17.46682605717652
11.17057493033734 -2.4422883406848097 17.47120770236691
11.112414714421792 -2.4252299717602943 17.471051268360227
11.033641945408727 -2.4009534550185303 17.4733902315554
10.945040012944576 -2.389813903727625 17.488151899642855
10.877920259418637 -2.361986391651807 17.49058660805429
10.816217935671386 -2.3322248869963156 17.491237565117807
10.749347043497302 -2.2979085191533475 17.492288601503773
10.709969492701616 -2.266808414219528 17.486462430218406
10.671657274731828 -2.2331060281765387 17.478753855151595
10.615286209771353 -2.1780379357735216 17.463976918766136
10.545606113547652 -2.0768201254194176 17.421635313127048
10.493655851643682 -2.0142418454304996 17.399765562198233
10.447290223461858 -1.9717978085304155 17.38784768001718
10.369807990055241 -1.918268147701955 17.379422188370093
10.292510535724592 -1.867844522596406 17.37162641422492
10.236020080295585 -1.833530790969406 17.36600360016601
10.186528942953373 -1.8054341486761922 17.3611279806463
10.122798362821328 -1.7717420841760694 17.354390712656617
10.06509740744981 -1.7388498120396418 17.342585304572637
10.015018174340875 -1.7128469571821539 17.331936496986003
9.9573515786678 -1.6892853525949674 17.320768699698363
9.907048357869664 -1.672519587879072 17.31083225126789
9.836195189854287 -1.6543664679547128 17.29442899273476
9.750129821304094 -1.6474234833856363 17.279389211777136
9.694575080030202 -1.6398389304339602 17.255330658273305
9.540344876539 -1.648348071370231 17.19690483578219
9.476797643349357 -1.6610528880690643 17.170937730508808
9.398246985612426 -1.6891389384920972 17.141143912266738
9.335154329596845 -1.718687496884172 17.116503230072546
9.274597583190191 -1.747813555009107 17.08789250352367
9.21687199825988 -1.773299066507513 17.054220375197637
9.16095500388676 -1.7972092335521976 17.017725253374394
9.115270343484061 -1.8129965228856664 16.98307426583681
9.043292725322853 -1.8373023477739885 16.925646884369282
8.966612008919137 -1.8661168523803422 16.863987242928808
8.915717509280395 -1.8859460624365632 16.821725545448793
8.857669882271614 -1.9024037207208178 16.76989797042416
8.810486301677722 -1.9134453462489134 16.726749665004284
8.760750196199663 -1.9231853739477112 16.680536216265523
8.685921209764503 -1.917859392380648 16.606158822626117
8.638040143076534 -1.9192726426404123 16.559492688493613
8.593735782180241 -1.9209528061274819 16.51578786811232
8.546771972576739 -1.9182919970793932 16.468798874921426
8.49966546375978 -1.9129130686123608 16.421011622248784
8.453153633975793 -1.9103452040496363 16.372695286003715
8.395579143665218 -1.9013154809437207 16.31140627691179
8.350799010433931 -1.9018964751755805 16.262404613020294
8.292432729901076 -1.900829187712871 16.195950077814164
8.24586606362496 -1.898763738462244 16.13952573560123
8.210142559517237 -1.8897832760143807 16.09288493848024
8.169503751737837 -1.8794964615534164 16.038711513210533
8.133407178233604 -1.871406576476966 15.986446638947074
8.093977916986521 -1.8649653185027448 15.924573377253221
8.056208698987225 -1.856795432965205 15.859231807798604
8.028697242841723 -1.852556934085376 15.806672296096592
7.993627331365212 -1.8479322494529864 15.729412561590513
7.9669815790559015 -1.8396047088524723 15.657667732770507
7.943695296097126 -1.834111611807744 15.578714189099276
7.929642823656953 -1.8295178328057178 15.514319121456666
7.920358036019233 -1.8251145995179838 15.449770041331458
7.9153663065971935 -1.8213998410110248 15.390849207327902
7.914300221939141 -1.8136221466289362 15.32824530535629
7.915431068642422 -1.809860157164099 15.271074990433512
7.92043443241836 -1.8030805914379897 15.199518382601571
7.926110489628752 -1.795776230879854 15.143550498311267
7.934601144832109 -1.7884164039501833 15.08118561738036
7.946329240138147 -1.7847913142986123 15.010115636087383
7.95981980188579 -1.7810601907928678 14.941391446122381
7.977395339462734 -1.776814564369408 14.861778079165049
7.994580282545656 -1.7658475381412062 14.794570092589368
8.014200621744262 -1.7570966349016848 14.723965890907754
8.039932434630899 -1.7530293314869523 14.637769653642946
8.059675950145799 -1.7436777384217592 14.578248726218764
8.078875692392877 -1.7347134011336687 14.5235944253842
8.119765551527177 -1.720310615041476 14.414149695015409
8.148877043983996 -1.7087722810532915 14.34107947858773
8.196539660704802 -1.709548775551517 14.229920353349549
8.223220974526969 -1.7075358866837496 14.172192892656737
8.259405382447838 -1.7052417490204705 14.097639172183934
8.283771065124593 -1.7015144233609654 14.049337391820584
8.31616616256868 -1.7034033035261755 13.988581350853991
8.3508014354382 -1.7163212991723071 13.928777778128982
8.382809687746118 -1.7226932991358046 13.873738666366043
8.430134291398547 -1.7236891991363805 13.802564513647646
8.47493395789842 -1.7285077895581162 13.741924586388183
8.507065221949306 -1.7352970076048102 13.700939251707016
8.554297429634346 -1.7407066775575073 13.64577223123213
8.594912368326394 -1.7445430417548664 13.601276474941805
8.641250141996178 -1.7479393635781522 13.554733367973185
8.716612725052705 -1.7371633858432265 13.486051457303372
8.797411520894624 -1.7440440904407408 13.417804572745307
8.851908252573848 -1.7533356108898284 13.374238530580767
8.91975271586509 -1.7658085915412975 13.322952483664306
8.995062906096233 -1.7795282759335498 13.269709693442213
9.050692778152417 -1.7919797167927056 13.23266133509977
9.106241109187197 -1.8051737716694687 13.19632325138084
9.194955726314591 -1.8284714755674747 13.14102150636897
9.271045012092621 -1.854054068487792 13.09566522225337
9.327888752254225 -1.8741110440685889 13.06284576086453
9.393681071687308 -1.8860520527216043 13.028817898413717
9.482696329910405 -1.9047585997935084 12.98472041189554
9.559336320888788 -1.908546134093565 12.953204253201553
9.700078518769145 -1.9438661612032648 12.902168716558943
9.809785780536746 -1.9639022690099086 12.875407292841889
9.859695595332658 -1.9733525199850073 12.866496007943056
9.914662882117897 -1.9859013888788546 12.858095122060544
9.971618972704887 -1.9971136106597691 12.85140378984056
10.039707968380963 -2.0097012534447103 12.845101481998137
10.097115126875735 -2.0285116077074834 12.840167024037793
10.155501853968172 -2.042272415878172 12.836230336035984
10.223790062299075 -2.060561228171923 12.831729530784362
10.303930583610182 -2.0800497615932283 12.826643089314867
10.384065359078834 -2.0912740952241364 12.822277848481562
10.449086656211858 -2.0973395334167413 12.819370811956361
10.521539730384943 -2.11778183400787 12.812470635378236
10.585701423763336 -2.1251452738883643 12.807818248406326
10.637713530282763 -2.1254316426132833 12.80519690318371
10.692192061409912 -2.127621861853901 12.801032290050204
10.741908773830815 -2.1328563595248626 12.797220518059039
10.804362431627098 -2.138161131126143 12.792603431220439
10.860131195209451 -2.146706308841523 12.788091483202898
10.929470248958324 -2.1636705047207574 12.781342210631337
10.98484193303997 -2.171725392076855 12.777261051624226
11.051495426296464 -2.1765613590665556 12.772883440689787
11.119198273446575 -2.1830020371608425 12.768312249916418
11.187159323132661 -2.1995036269896797 12.762797011779426
11.2478669142142 -2.2088149912085253 12.758882753316325
11.33018957838437 -2.209803967600821 12.75447638053574
11.40351483992447 -2.2131362053062227 12.750592875115013
11.476126357230717 -2.2248468340021788 12.746377455811746
11.567418786175043 -2.225076190603011 12.741748891533213
11.618133616347528 -2.2320958998117337 12.740503890483247
11.702889482834697 -2.227357513515855 12.736981652523486
11.754019641083092 -2.2247707823071767 12.735237053416625
11.823110539231797 -2.2229836575245994 12.733664988715754
11.92832945604602 -2.2339225710907473 12.729600801711758
11.991901090922415 -2.2353948846933562 12.727810728250727
12.059699823631535 -2.2420964333909428 12.72604987628387
12.16133717365444 -2.249074200294644 12.724374277673533
12.259095467305174 -2.249636281791659 12.723619143362065
12.33136945888563 -2.2454097803703306 12.72333285143884
12.411551770107657 -2.2335173087413076 12.724068484226159
12.472368655460517 -2.221930168482199 12.724824985551138
12.538811450744012 -2.211233029713874 12.726291648875883
12.606577037462419 -2.2005064773490624 12.727962831329165
12.67055040035026 -2.19172062417845 12.730304609892944
12.742468820436732 -2.182998170533527 12.733928863786954
12.819216667227492 -2.172563204205934 12.737992020114447
12.910222265634275 -2.1615362558123303 12.745087655796258
12.979303794689994 -2.1506104348323554 12.751375716367578
13.035322380303777 -2.139473649872221 12.757048666069053
13.099474576578155 -2.13773185464172 12.765590297103834
13.166972554386387 -2.12803132696452 12.775144166550238
13.240388586849576 -2.110675772706349 12.785930632546517
13.301694251773867 -2.0845097063299627 12.79551129714387
13.368969373918931 -2.0578320309243114 12.807568403905284
13.437771083557319 -2.0200467926538552 12.820394217231328
13.493292980937754 -1.9837934793973382 12.831566007644822
13.540738926735841 -1.9641776336150594 12.8429144918227
13.601953385123824 -1.9397613437563113 12.859293543870052
13.685686864826565 -1.9166182043570785 12.884698243920408
13.762103045775287 -1.9080194775984625 12.913679530968352
13.848478273530416 -1.9110178833742788 12.949754417212212
13.934756717844206 -1.906434543140012 12.989322042654777
13.987771064781818 -1.900424253933326 13.015367116750124
14.046045107423552 -1.8963894499224807 13.04596820879811
14.15078088255971 -1.894967726717021 13.107305386015414
14.22549454771123 -1.8955841067861323 13.154651123071162
14.269608343080176 -1.8950608760394 13.184079521415399
14.340553463691297 -1.894244019479017 13.234999936097301
14.405996313531807 -1.8941845466066338 13.286862744867914
14.456958997502849 -1.8946316893238118 13.330777911479121
14.505389973506405 -1.8957641479854752 13.376460069483562
14.552068402209924 -1.8986264930791137 13.423512088090328
14.602209669528532 -1.9072971331321877 13.479782644723523
14.642269502778785 -1.9045588742695942 13.527687460933581
14.675642231017815 -1.8988422104017477 13.570924325991658
14.726656453721496 -1.897897776030245 13.642638580431374
14.777515992607066 -1.8904088999958857 13.723237823809846
14.81161566877769 -1.8855090898633735 13.782603319393466
14.8448746255907 -1.8814137979800067 13.844821260210992
14.876327488146595 -1.8733034012708538 13.908896239077716
14.907112574521348 -1.8628578475049409 13.97538689636448
14.93834298122703 -1.8482843357777634 14.048480139753305
14.969354844578879 -1.8423093561667931 14.124000930145638
14.99936292130026 -1.831166959688101 14.202486693581072
15.018953267471122 -1.82518175776912 14.256076292284337
15.044865434728596 -1.8193130683955134 14.329044621387714
15.064576494743445 -1.8142769403724257 14.386065038515394
15.086926021188534 -1.8084505267541209 14.455992845024861
15.108090765954168 -1.7973551285921916 14.527518841977953
15.134264024386878 -1.7803979677411315 14.621405821711207
15.154567663074184 -1.7596640724324404 14.70764369555964
15.16901584507202 -1.735918628881782 14.779830682622963
15.18137455139842 -1.7144148271767117 14.847766215274154
15.192832947291565 -1.6955613865247319 14.916263674599152
15.201767461805115 -1.679301332719656 14.97861124342016
15.21163802170316 -1.6628323939646554 15.053132307278847
15.216952967414905 -1.640295537029985 15.123431206713695
15.220302602800944 -1.623339743426512 15.184633459711916
15.222468630715769 -1.6059273604693152 15.257741261363192
15.222618204674962 -1.5947966040780575 15.313948448932491
15.220458850258192 -1.5828782783613091 15.375389486581357
15.215637205487848 -1.5687008719389484 15.434836925896732
15.207232845092516 -1.5544365490267156 15.493205752260447
15.193554196068595 -1.5346094105214956 15.561743912945456
15.181407098014407 -1.5195700949777438 15.614868125811904
15.169874333686447 -1.512909687511807 15.669063150039454
15.155321288289887 -1.5087263528090507 15.735813811290505
15.140687817202762 -1.5022219736354154 15.787830283298677
15.11292620661229 -1.5005778953501467 15.88646620987989
15.082850868663934 -1.500348814296827 15.976470755607249
15.063799278338134 -1.5001279402313914 16.02887676113794
15.030016983844646 -1.490988036847967 16.100584916963676
15.000063473613041 -1.484843695070941 16.161994088876504
14.957347264470679 -1.479589685776106 16.241711812678986
14.921391589974224 -1.4772600646777043 16.30432036511923
14.876224074133786 -1.4790254141779924 16.37698321253852
14.826737480397833 -1.477746598469838 16.448548697444295
14.772392485139491 -1.4828574888980208 16.522497583456
14.718216161626408 -1.4882025991386039 16.589227307041675
14.65699454329458 -1.4881294078775307 16.654206079049537
14.606765099910024 -1.5087717173237492 16.712721995181333
14.566111953476693 -1.515436044473435 16.75334474426286
14.51215122521575 -1.5196935881648432 16.802290545148377
14.46419821580678 -1.5199700321340623 16.84205936502142
14.408578834621913 -1.525747410468104 16.88651866642084
14.362805218584356 -1.5356454795434349 16.92574158458008
14.310210823065798 -1.5488463635292797 16.967136163042298
14.264746602311327 -1.5664651192324657 17.003091365463213
14.225241084874984 -1.5837544490866007 17.033496335024488
14.164192177451028 -1.6106700876324798 17.07768827212483
14.111265353492099 -1.6325520312647868 17.113365785914787
14.055718758972628 -1.6513758063012176 17.147577617306176
13.998478080394383 -1.6698284185041263 17.180389470645174
13.939315605137399 -1.6896762339345157 17.212294060547563
13.881622998387318 -1.72007713414283 17.242995283109565
13.830819223950014 -1.7466141022586825 17.26900584330736
13.761357733505124 -1.7798565836530624 17.300320528736506
13.69821112436553 -1.8117889291989524 17.326690659358846
13.655566562089563 -1.8335422646216077 17.343333913520418
13.612660251071464 -1.8564113588247313 17.358954750579052
13.560407717645264 -1.887440370810082 17.37714681074181
13.508205995527893 -1.9279464881084918 17.39412846560252
13.469041884465092 -1.9588558735201618 17.405496928838236
13.43397755816433 -1.986529090614738 17.415675398523202
13.361095668620244 -2.0426210767728623 17.43417639013372
13.314273877581112 -2.067266384281293 17.443242172861346
13.257174970735841 -2.0967317488323722 17.454468945853506
13.192264407365194 -2.1264604828828064 17.46492202548044
13.132118413220262 -2.139682386238311 17.47141955585072
13.067678015631556 -2.154446644254926 17.478515939075805
13.015295585907564 -2.173076140716297 17.483864862741214
12.907204080022755 -2.2203013930187834 17.494907993896604
12.821077161299378 -2.2363678337011166 17.498485977306323
12.758846677210974 -2.243955739436711 17.499320014631248
12.673309093764972 -2.2514683475607757 17.49842205902808
12.607352562765712 -2.2642280042968057 17.498396289069134
12.538719972690025 -2.2812759921727177 17.498613767154787
12.4417467036198 -2.309886328911027 17.499288000927564
12.346853122067127 -2.341083557647889 17.50056280279441
12.256836034867305 -2.370485715219452 17.5017018612757
12.162915890071462 -2.4149516901979 17.509279576516576
12.065626937435333 -2.4409070098395333 17.50781582506007
11.96365341794618 -2.4513380577040813 17.502180170040344
11.89961835389611 -2.4557809611780628 17.49743401384055
11.82332416831456 -2.460920523236933 17.491879872994733
11.765286216603965 -2.4648904741810154 17.488085248814354
11.699775637275028 -2.4687870373971723 17.48400445804312
11.635561580988899 -2.4707445289994263 17.47936532194283
11.572875189428682 -2.4722662286251347 17.4759957362974
11.510308091511405 -2.4744647541357656 17.474053188643836
11.445788676503328 -2.4744872164483147 17.472258828123564
11.346283394669404 -2.4602649202528015 17.46550076921961
