468
-2.1378215245366956 -7.558017418762663 2.259201202716578
-2.1880150978851636 -7.576635031015657 2.2350298032577762
-2.246441913991742 -7.5984551277914925 2.2055970557711198
-2.3342078395670733 -7.643249358935139 2.15203041342413
-2.39288859208822 -7.662433146674774 2.117205755542974
-2.456849806791442 -7.685752744865942 2.0741110519132135
-2.5044274333226113 -7.7062510187006685 2.03811102231859
-2.5551928939842394 -7.721459210320663 1.9986919979713493
-2.6055581181837826 -7.733827773000435 1.9581525350292766
-2.651607393046074 -7.745817722862278 1.9159809177309532
-2.6955099074861706 -7.757107078652875 1.873343755814732
-2.7358771038530336 -7.769263922803791 1.828706795805397
-2.787368560129645 -7.783557232230469 1.7672679884367177
-2.8368023590475 -7.7956201734011366 1.7034806292997868
-2.8694083636283665 -7.802599934686826 1.6582690881085802
-2.9149786809958207 -7.808290547553696 1.5929959035202252
-2.9530333479704325 -7.8119216434732826 1.5359232270611543
-3.000192057773939 -7.814582093487178 1.463238077896386
-3.035559707353174 -7.815974756574773 1.4081649604637787
-3.067073233473526 -7.818752716396213 1.3544139434179983
-3.1026980094110708 -7.827972280997403 1.2854342884100545
-3.1351050521469586 -7.834659663638843 1.218713731015791
-3.1730281961373805 -7.839900309182951 1.135357514073929
-3.192365441295237 -7.841815327449643 1.0886592309768814
-3.223712841835877 -7.840611771230945 1.009242850704272
-3.2436611062893506 -7.835673268373023 0.9606277988006
-3.2649150363567014 -7.826047853543219 0.9078587265136615
-3.2919555770714255 -7.81022145196499 0.8388915616555728
-3.3225374000447947 -7.797156439302699 0.7413914405453383
-3.3387584969471553 -7.789589137301427 0.6830991624040383
-3.3571807010141423 -7.777553582577663 0.6211603351810022
-3.374241736120907 -7.765305930220856 0.560803273455698
-3.38970612932504 -7.762229179991172 0.4832131302237221
-3.4101054594314055 -7.752183607671412 0.390526536596909
-3.4244729320769998 -7.746012623765147 0.3172659890894857
-3.432868817332218 -7.745514170492631 0.26612042456209045
-3.4416997344169618 -7.7450789319575355 0.2136286522238286
-3.4510762211486896 -7.741492490716303 0.15998711831630436
-3.467091804669346 -7.736011962906938 0.07097193998798307
-3.481451861301338 -7.735886950375643 -0.022864137760251257
-3.4897330112010763 -7.735817821789419 -0.07589543601966003
-3.499479577488429 -7.733483171527363 -0.1333938084442669
-3.512956949585132 -7.730928302577938 -0.20804633054550076
-3.5211304481667023 -7.728874151159963 -0.2593862800788734
-3.5290633255086563 -7.728673253343079 -0.31288622243813097
-3.538846662507033 -7.72899638737602 -0.382018992101874
-3.549417549301343 -7.726582069149224 -0.4515066650444198
-3.5589533042025674 -7.723277098040851 -0.510803434455364
-3.5687359509214063 -7.7197024439687265 -0.5712647452037858
-3.5793821230231644 -7.713465332439645 -0.6331217559374129
-3.5904105354578437 -7.706795806025522 -0.6961336579350033
-3.602115374322827 -7.698500276720017 -0.7610978816743683
-3.614171899671764 -7.68890789465789 -0.8254685979805809
-3.6318214755163596 -7.67099707445083 -0.9097843141548811
-3.6461865409521343 -7.657559108877415 -0.9808249559959403
-3.6589431233617713 -7.652186977397437 -1.066697163087628
-3.670833242188293 -7.644915820060811 -1.143991161545953
-3.683393389463715 -7.636451912278722 -1.224428924759881
-3.690139034639471 -7.637366840899129 -1.2876066288884431
-3.6962350450957446 -7.642383436384834 -1.3616744937209848
-3.703009268509092 -7.645929195739428 -1.435887782364278
-3.7070062305798723 -7.648982366047286 -1.485725620051483
-3.7108279618151756 -7.652628947442203 -1.5357690036473626
-3.713760059764337 -7.6548394987262025 -1.5862903896257652
-3.718888038614408 -7.658607070421137 -1.6359548273584472
-3.722903932797843 -7.660495359947562 -1.6861488109582212
-3.727293437443375 -7.662674499453967 -1.7366947804817423
-3.734452058257492 -7.664031701696813 -1.811411295807508
-3.7424303250946336 -7.662858143758295 -1.8855709521362494
-3.7499759847487835 -7.662909663818392 -1.960058543737956
-3.7562985458840843 -7.6657955189757 -2.037112196338203
-3.7614447570207346 -7.669888319531256 -2.105916952720476
-3.767063531304833 -7.673704203902092 -2.1832715325821104
-3.7738220518899928 -7.683607594712558 -2.30147791020261
-3.7756415547379976 -7.696756947229244 -2.384863256982698
-3.788615269688437 -7.688593714410486 -2.4938479403576506
-3.7959706169121374 -7.691059202484931 -2.587222396705083
-3.8010475372866526 -7.696014898375059 -2.6714260221539274
-3.8053661276286856 -7.698972067823168 -2.738714591315236
-3.8096934714162614 -7.701044629236854 -2.808376782523416
-3.8173966560899655 -7.700513255099333 -2.90405801225064
-3.820229719644376 -7.707756602440685 -2.9829276269608265
-3.829042386851938 -7.703106496764614 -3.0819930190295364
-3.8362497317900606 -7.701918711567772 -3.173889060043917
-3.8407023833760503 -7.701033656454867 -3.236573786740497
-3.8442485492171374 -7.700512602316271 -3.2896841907208714
-3.846109689651835 -7.704472218508065 -3.348815557639928
-3.846001576293137 -7.712262522770447 -3.4103313348036823
-3.8453945856929153 -7.72094594593999 -3.4706732736461015
-3.845209954899827 -7.729512675163583 -3.527138311941942
-3.8419910080959974 -7.741398358418022 -3.5875543683869227
-3.8386836985100214 -7.754011768992527 -3.6440913785267512
-3.836258539506728 -7.764360207814182 -3.6993606553525624
-3.835944972506546 -7.769759022917751 -3.7528371222649883
-3.8365448890299634 -7.773271982213482 -3.805081641110752
-3.8371453804573474 -7.776557593718671 -3.8563030184430747
-3.8365867690217885 -7.781481886867475 -3.906370931468364
-3.833779288199987 -7.792156495217889 -3.9831172562332235
-3.8272982053736655 -7.808546446283578 -4.06151478933402
-3.824356507326497 -7.8173006816552055 -4.129939972303641
-3.82224510143123 -7.823166972589303 -4.18834298187123
-3.8201329878843704 -7.831116774055352 -4.271093443016186
-3.8097362296524033 -7.847012533343387 -4.3347927142933145
-3.802212711896124 -7.859028806276868 -4.387448470986807
-3.7944651651955073 -7.870380928120739 -4.442261784409148
-3.793839965362674 -7.868385350214799 -4.507285762206126
-3.793263695597748 -7.866958385608641 -4.558876106370598
-3.786901372635591 -7.871977188243906 -4.62244935044497
-3.7801403767358943 -7.876153152219408 -4.682123086014126
-3.7739622539923925 -7.874054464279527 -4.771535323231831
-3.7661728250702944 -7.876589275047306 -4.830418468546597
-3.753346487497835 -7.877127379114991 -4.9157691851230005
-3.740576699936691 -7.872480720892444 -5.005621032313516
-3.735871995854334 -7.860329555133527 -5.068276024867112
-3.7309839869527615 -7.847246698048229 -5.12170330211355
-3.701909759024852 -7.842911051225844 -5.22504266127989
-3.6803559853076706 -7.8296872404486795 -5.304306970421518
-3.657731364074066 -7.8063259355196255 -5.38801058369301
-3.632403617058739 -7.792313522971841 -5.454184730657726
-3.6083559571610953 -7.769729331116222 -5.519713839803004
-3.5794690592070015 -7.75241132333801 -5.582480459136992
-3.5533718946347137 -7.735518409948089 -5.635913845244345
-3.5258507855167003 -7.71757052211516 -5.689443605696837
-3.4924837752942017 -7.708516508434177 -5.741843219802022
-3.457110526993617 -7.701806455941694 -5.794217410990149
-3.4263353909379712 -7.69466086463233 -5.8401100462584665
-3.3909525871281385 -7.684260819121084 -5.893966710668272
-3.3540875436309556 -7.664933050544612 -5.956202815970965
-3.32041585167373 -7.646925628339175 -6.01474945479128
-3.287350123345212 -7.6328720977969295 -6.070072266300485
-3.2524092936058167 -7.619057523065646 -6.127449409236643
-3.2186270380801996 -7.6072164733095455 -6.181203304039499
-3.1614975077584675 -7.601589050373971 -6.260913401098042
-3.1103071537505205 -7.5840525200868285 -6.339000487475573
-3.0722083689013977 -7.56658329215259 -6.397940315631816
-3.0381924898826993 -7.5511368233308644 -6.449577514582887
-3.0065470786050503 -7.541241309412832 -6.493739654482934
-2.9543440541444785 -7.523704978177876 -6.564995301198708
-2.913725000301448 -7.510230034275151 -6.619054773895872
-2.8694060603729485 -7.505257584584247 -6.672065117217347
-2.8234899948273964 -7.499487048464403 -6.724453663673092
-2.778349284702774 -7.490863380416365 -6.775829967157341
-2.7037406606398857 -7.475920625827823 -6.857012018370117
-2.623124369134344 -7.460877783601887 -6.938501160569388
-2.5568653819676026 -7.448112309860752 -7.000824937549556
-2.5108031581228683 -7.437258524076461 -7.042039702821918
-2.4600925471730974 -7.4271065656167945 -7.084466215405486
-2.407657707285681 -7.41610386692719 -7.1262949591592335
-2.352360247459562 -7.403122546018549 -7.167654536551301
-2.2981944619174515 -7.3884092645272315 -7.2087356437271435
-2.2419996984033146 -7.372147169453864 -7.248711582410163
-2.184543569389239 -7.356292274038439 -7.2878372984762025
-2.1296197764515417 -7.3406141793350645 -7.323656451761391
-2.0532189868236097 -7.316695440910051 -7.371685078943907
-1.9842081332988817 -7.287647668846286 -7.414298598425139
-1.9246368524359572 -7.271957385104152 -7.447920253288129
-1.8662263049258265 -7.259069703849234 -7.479012893313785
-1.807798276589571 -7.248597474960595 -7.508625560314417
-1.7300159471784773 -7.232658994654108 -7.546204171804501
-1.6835669005051606 -7.219368428074269 -7.568236557859845
-1.6255973355068336 -7.205354310906384 -7.593677245325651
-1.5254903424583481 -7.186714996173642 -7.633965575442563
-1.446247792926494 -7.142300275175383 -7.664964607382742
-1.3785181174593475 -7.131894319036456 -7.684586365714592
-1.3167763125751646 -7.102067070026494 -7.698555165729509
-1.2507623792496763 -7.06269677115877 -7.706682021726964
-1.15273826127156 -7.040513780018527 -7.710884548182282
-1.0262334547829417 -7.041575651312604 -7.706329452981637
-0.9600882376871229 -7.063352093036419 -7.7026460833261
-0.913766705986945 -7.0894083021820995 -7.7006849486172415
-0.8555825545491963 -7.120700511638922 -7.697395717049382
-0.7769657001268402 -7.148666272016287 -7.690918038247334
-0.7107007745282343 -7.1697116443116204 -7.685610631899401
-0.6448070521130584 -7.1886290570461 -7.681114987557592
-0.5792252823227046 -7.207281853946987 -7.67866274492247
-0.5143258099071351 -7.224911668044539 -7.678333600897219
-0.4458446620876747 -7.238139729845238 -7.681361876008286
-0.34903735213164794 -7.252487197850733 -7.689228379847681
-0.2399336761291847 -7.252656743015639 -7.700164436206146
-0.14436141671134195 -7.245882681114992 -7.711236174684414
-0.05977479920065147 -7.2247905463388715 -7.719682443080277
0.001347930994669691 -7.2084126142585045 -7.725530812537714
0.052041609759473986 -7.19154020133241 -7.729622619598347
0.11283327338655642 -7.1693910350176075 -7.733659348198396
0.1895610165621206 -7.146642333373026 -7.737668692933131
0.2662873682893078 -7.125905493840324 -7.740363378393381
0.32357137234877503 -7.109234904967791 -7.740851374994865
0.371968474667223 -7.092402751247067 -7.739948351754268
0.42128747364358793 -7.072741649087183 -7.737622347105441
0.4720903720297297 -7.050938692779517 -7.734733533960152
0.5370267076347043 -7.02906067131147 -7.730170276337123
0.6055756484635682 -7.014170072394255 -7.723786350626724
0.6635785867106849 -7.003703003556271 -7.720017350842421
0.7315844012697268 -6.988378845529438 -7.713397379625208
0.8003555073253102 -6.971101339118473 -7.70649432050148
0.8857161108612394 -6.951294840563413 -7.697427634393572
0.9533495719468293 -6.92974525646275 -7.688535277911653
1.0511860003064286 -6.90596888959871 -7.676167447401874
1.1398214569840694 -6.898463808341832 -7.666672904904395
1.2146843157872798 -6.89665436497548 -7.659615827459389
1.2971269007493835 -6.881934996200353 -7.648623746071769
1.377193211111748 -6.885029719264498 -7.641786925839629
1.437203107469019 -6.88261443131019 -7.635291748021207
1.5443061501474937 -6.875952258690431 -7.622387167597591
1.6305966619558085 -6.869071425238174 -7.610476082866391
1.6965516591549308 -6.858867634467559 -7.599042737422645
1.745422431728932 -6.844963050586852 -7.587455663239239
1.7915140018291933 -6.828209586487257 -7.574481172443525
1.8374955808547635 -6.807453295319068 -7.559323778083722
1.9396157047125577 -6.7944454139865575 -7.5360921484810355
2.0093603017751893 -6.785482980099327 -7.517330280041488
2.0666046806560363 -6.7858785341725545 -7.50481741255512
2.117133491557945 -6.7936150792629295 -7.4961554617048085
2.1671598323277967 -6.800989758462904 -7.486047282177465
2.260077202824898 -6.825182879494171 -7.472776387497949
2.3541788109810207 -6.836316807070065 -7.451629326507197
2.4368441295935024 -6.85077066514436 -7.433484959721443
2.4969237117805854 -6.861022536087855 -7.419362411659012
2.5727003045246195 -6.874800437505413 -7.40096627036469
2.653930842790012 -6.911467974320347 -7.3897484788261485
2.743891062930489 -6.920056171137379 -7.361937300169476
2.8367975186496954 -6.952975741712479 -7.3412131375904215
2.8998138364120174 -6.957638614405 -7.31964617235399
2.9798519861595913 -6.976514740941391 -7.295871633772329
3.035143838042538 -6.986561518533534 -7.277165745621165
3.092776063357557 -6.995686448035955 -7.256428825321253
3.1894006687616336 -7.011818186248226 -7.220873829130332
3.2521888045707446 -7.018711504554119 -7.194725788131369
3.3148209112708433 -7.023734916922736 -7.167151957539772
3.3675902586497943 -7.038211243527011 -7.147786298145229
3.455278047378839 -7.065909199156829 -7.115445695898554
3.54076015614949 -7.095668266207163 -7.082682071811095
3.663329217832635 -7.119381405886315 -7.026200841724296
3.738550114782602 -7.131287239529135 -6.988099886333085
3.82762943166303 -7.150903049285194 -6.944944957730196
3.8965975378752673 -7.17291793330339 -6.913406591143467
3.984287989788638 -7.181663270744031 -6.861618790489442
4.071446166746604 -7.18938399648745 -6.809438785689434
4.134724466865457 -7.218775799260476 -6.779817716599395
4.212202736382677 -7.254767468505617 -6.742945271208265
4.327103232548402 -7.327397273862292 -6.696484099822782
4.394818215263794 -7.369270013197753 -6.666291717240127
4.459494640205883 -7.39818064432149 -6.628682131040377
4.51665091828938 -7.408256308600683 -6.584248576939899
4.5605811840824595 -7.415115203681305 -6.548303593207959
4.6258904973322394 -7.433257897551278 -6.496573123426024
4.675545326704272 -7.449762266689801 -6.455373254230205
4.750491585298729 -7.493067551548996 -6.4016196288082075
4.7965762589487655 -7.523812284660863 -6.366971000984724
4.838120273288931 -7.555140153165642 -6.335222662083337
4.894318728755006 -7.59985449842547 -6.2908107982650145
4.938818020769438 -7.632110420396184 -6.247115792719844
4.973788071345436 -7.656029463769977 -6.210571057277358
5.0077493802838795 -7.671988476818458 -6.167690508691497
5.040245147251136 -7.688264022896187 -6.123852130483174
5.085380831496841 -7.714261895561414 -6.060459381996013
5.118697840267269 -7.735545245351913 -6.0107831461749095
5.152633232654378 -7.753599112690252 -5.954493560976678
5.183698400243515 -7.76805312588192 -5.897334469110913
5.209532557027817 -7.7784090664099015 -5.84618098901305
5.2412009432968 -7.7854635096192615 -5.775239805698796
5.269648083277768 -7.791461811869712 -5.712299029465024
5.292884111164454 -7.79441432086241 -5.646508548936351
5.316288840028665 -7.796395803225646 -5.580122360277858
5.3385766447557 -7.801215421865805 -5.515143144307191
5.364390632655374 -7.807435826888943 -5.428698693643159
5.389752398167023 -7.8346647936393765 -5.3512066566624785
5.404715990697944 -7.836290974592887 -5.28943629434687
5.417820738181146 -7.843033416411943 -5.236143134728247
5.429690986081712 -7.855823952117471 -5.187462059313504
5.4431625782682005 -7.860861669261573 -5.124850726409508
5.454196836834134 -7.856087240636118 -5.061392112341063
5.471779046238846 -7.85171000571937 -4.930710202620201
5.478328084878958 -7.841314551532461 -4.857167538031902
5.483142876418604 -7.838426448489081 -4.786499378554307
5.48502441737963 -7.839670436595261 -4.734147045155215
5.485599333546497 -7.8557492126633335 -4.641574761909251
5.482915931813371 -7.869384727045663 -4.559628299791611
5.478257339648739 -7.885865977844946 -4.497433141880299
5.4749376822163445 -7.877929285804549 -4.414934794300359
5.474105731124999 -7.857960863059237 -4.3487912121558345
5.471274531149077 -7.851899046812246 -4.286886318087891
5.469693040398357 -7.8441855480240115 -4.235829143357711
5.471156910874476 -7.819014432545414 -4.186812168873217
5.473954613409466 -7.792645402803792 -4.135828670705508
5.47734571170078 -7.7529182931743605 -4.05456558708876
5.47106184387633 -7.744902113550937 -3.9497640243923784
5.470304028570651 -7.733676323718483 -3.891841670144841
5.468624341459317 -7.724362720422497 -3.8323414481864533
5.46107149288194 -7.732875231176026 -3.767760627278958
5.451495659026926 -7.743839494955862 -3.6999297575075882
5.43847379429928 -7.764219955572967 -3.6250461613141733
5.4351245132155706 -7.767300082524186 -3.575192004243195
5.436937220027446 -7.7495178999803045 -3.4950265770840274
5.440969457126938 -7.73331752616209 -3.431027983746643
5.447098921493445 -7.717723842789208 -3.3770977989449196
5.453713197054738 -7.702614836998482 -3.314008987619853
5.459915495983949 -7.692845294785115 -3.2418653820111234
5.464446371026123 -7.691312559056467 -3.181119424372058
5.466429560596501 -7.697916259948485 -3.128762380314479
5.469520258768563 -7.712226399408594 -3.046330627557172
5.476114988379258 -7.7272779405682455 -2.9534442866124593
5.4813276093951915 -7.742292276310179 -2.882689341131707
5.490236460785939 -7.756065686438886 -2.803590906447504
5.499277882354147 -7.763690590463182 -2.7434918863536963
5.509910988253532 -7.7738897006055385 -2.6750644829181254
5.5235678610553345 -7.783817578127922 -2.5982087074180464
5.537538939644821 -7.786868383154792 -2.5351829398278283
5.554700466674958 -7.806154515511347 -2.4400652700600465
5.565062639854355 -7.815075417968478 -2.388660458942891
5.5741639091810375 -7.822910703311871 -2.3435096604859242
5.588792203913478 -7.831461349264641 -2.2794795765968554
5.6081671764545185 -7.840166714322071 -2.199940621568716
5.633035237817669 -7.853821906397691 -2.094661508236023
5.648396557973217 -7.87902939586119 -2.01408650158552
5.6596802238978645 -7.909641527008306 -1.944241166145655
5.670860261906484 -7.930461354584288 -1.8852263742890747
5.681957475957021 -7.9560326258786525 -1.8236606898501075
5.6897101923635285 -7.970991012453622 -1.7811820550512176
5.699285285573586 -7.989465487529115 -1.7287159704367212
5.713916297935631 -8.012089353847632 -1.6555202691543724
5.729081347130533 -8.033966460258426 -1.5861842506751127
5.740501806353603 -8.048881664880897 -1.539828178389186
5.758782912318693 -8.070355632928813 -1.4711375240946172
5.777532845886646 -8.093532892911528 -1.4053447613857997
5.7987317204301725 -8.11146181722001 -1.3395432563966412
5.82061591918957 -8.127872252534257 -1.2759270408945853
5.8440330331392785 -8.141683538131794 -1.2112721034064537
5.869820263091899 -8.159635626907187 -1.140341366468094
5.888881581500997 -8.182843693329284 -1.081820447157565
5.915411761333427 -8.211813198261323 -1.0024934707419861
5.934963966958896 -8.227796439160311 -0.9425809559303155
5.954018189759094 -8.24331365129669 -0.8828379156562116
5.971495208733029 -8.25718981209504 -0.8224010384544791
5.987271752092487 -8.269090327597382 -0.7629574508639281
6.000422505967995 -8.282310864196802 -0.7029602397045651
6.011113378288721 -8.2956379734178 -0.64268900344845
6.017621029378489 -8.313839763103562 -0.5833511063229977
6.022056624187618 -8.327503752928589 -0.5190569302954524
6.027270535826596 -8.33907250954852 -0.45493196868357827
6.036427173788967 -8.349723260558875 -0.36278656232375156
6.044197081797525 -8.363791837772919 -0.262723266379358
6.0544378957014215 -8.350541177892524 -0.17921804024209892
6.060361280447603 -8.341727896831843 -0.09780209177711613
6.063292003511307 -8.32494885928845 0.012777004018381166
6.050805931110417 -8.341240835553963 0.10393530396427336
6.036155783429844 -8.357758631169927 0.1686053515183747
6.021558682650465 -8.372450576085985 0.219711049530469
6.003382579575512 -8.384343218425084 0.2737897173000902
5.973246100616716 -8.39770818178547 0.3475149812949205
5.93662423319327 -8.42158856166289 0.4142472132773955
5.910625262773126 -8.436848537383545 0.4549541814038495
5.864612644934277 -8.460866101942417 0.5194072658892015
5.823107816615905 -8.45757247356294 0.5781411277050736
5.765370844580408 -8.456188133534202 0.6489684725508973
5.723786883390772 -8.44397271151771 0.7020540955184573
5.676627165576957 -8.423085134435599 0.7578026723556897
5.62623061541605 -8.386185256129721 0.8210556352024128
5.553737905802399 -8.368382871877513 0.8925399759069532
5.507599172931121 -8.35513163190831 0.9347178365321329
5.461633240365438 -8.340789542589096 0.9765529046302044
5.410367968636727 -8.322587743951622 1.0222986109610799
5.359821517381558 -8.303131811226834 1.0660706756064533
5.310274021182893 -8.282842862293085 1.1075328112084255
5.258609624818306 -8.252195427820176 1.1524903006356264
5.212274137752906 -8.226123297455498 1.1908547922240702
5.148686522418942 -8.177829622876034 1.246935220294957
5.094438227387079 -8.129975503287275 1.2950893823234273
5.056952410957989 -8.11120045473538 1.3223412891723707
4.99340236921859 -8.082200405923514 1.3668537096178373
4.914719732822213 -8.042050144877514 1.4209293019590599
4.832051171909555 -8.002902554912078 1.4743124276460144
4.763067154790974 -7.95592741852764 1.5214953583278206
4.683589399300774 -7.905318353081968 1.5733686208549988
4.636171678660841 -7.875085960481326 1.6029812130210601
4.5672167396930625 -7.835062814167455 1.6435513406892284
4.492709084010947 -7.807497950271493 1.6807098905022286
4.440970624948778 -7.7856591145755445 1.706469593933441
4.396279218782568 -7.7629369261722205 1.7294213433825882
4.324291312297375 -7.730171659729619 1.7638993097202103
4.27669911522119 -7.7079401818719235 1.7864091140561855
4.223628813278202 -7.683988422387709 1.810674310453873
4.146830701777989 -7.6488874369920605 1.8452656794234352
4.079372025728162 -7.6200328551223695 1.8738596185706553
4.006570610437073 -7.582554505423083 1.9061918682750782
3.9481833100525257 -7.55494337148204 1.9308802979736073
3.888276282358861 -7.529091077847946 1.9548665690129368
3.8107585774328547 -7.487220751434495 1.988375915121868
3.7414587334393725 -7.44149156230748 2.020935682490127
3.678905461524175 -7.402965396770518 2.0492007489310833
3.6092493906776495 -7.372124624842328 2.074567091410121
3.543905478147176 -7.350046017388428 2.09734374956805
3.4979249763704012 -7.334861854079438 2.11232605604189
3.429395498981567 -7.312137304077971 2.1344510885827477
3.3444733039755246 -7.284439214391108 2.1613423606925815
3.2560512054949555 -7.253515628957872 2.188814201037661
3.175762485461221 -7.221962977275886 2.215632312029907
3.08700441054627 -7.188128408648206 2.243771942626085
3.0303012045217677 -7.162085332803338 2.2638184437475934
2.9585718127986476 -7.1384012853850685 2.284912179078882
2.9053644659869464 -7.117348274768452 2.3020987487420954
2.8420745562653216 -7.088331862104193 2.324556082255538
2.785538924414017 -7.06672845715184 2.342456534796596
2.7288959247729996 -7.0467863511396 2.3603514545019486
2.6689064473645834 -7.014151910621651 2.3835599982134745
2.612683317250429 -6.9863903190639345 2.4050062798495513
2.562918872841417 -6.966532345834126 2.4219143745216756
2.490864802622925 -6.9537783459359455 2.438119917303168
2.418128490279966 -6.92425102849514 2.462466002056013
2.3316059685494808 -6.8887597903401 2.4921278238529108
2.2225236110619164 -6.873068115357144 2.5109993666236945
2.160042328802349 -6.852918700620432 2.5319141409733485
2.0781199376942303 -6.81753099167211 2.5603302961554397
1.9921585738406986 -6.780070305422639 2.5904969751965177
1.899777379746168 -6.756014024578704 2.6112118708323946
1.8035582508554384 -6.725669851893256 2.6399593780472146
1.728666643865002 -6.696032777953757 2.663583981283409
1.6770813825059394 -6.682151810328213 2.676367471145681
1.6104743649663464 -6.661960393146379 2.694017388382951
1.5501253024175274 -6.639782304267898 2.7115775467868706
1.4624334437903965 -6.622967530782343 2.7290863846119215
1.3778590877333674 -6.594866191008932 2.751718005879928
1.292094220999062 -6.567426516060776 2.773711478455709
1.2047361886626071 -6.565587514892261 2.7824635048033906
1.143395045595303 -6.558523882889663 2.7912895909585225
1.0789589762330865 -6.544786464120121 2.8036307967316856
1.0224246303028077 -6.545354773279816 2.80769235582707
0.9663549631425624 -6.541335698500324 2.814370199624206
0.9020353652371246 -6.528258175978273 2.8254411982335776
0.7918377934249808 -6.542153288857847 2.8250930068314104
0.674023877656583 -6.541299397458265 2.832780156396192
0.5982904630615762 -6.541218174484215 2.8369263562118987
0.530206512083647 -6.554962588115179 2.8332822879113446
0.42456918752914824 -6.570612755475669 2.829698949687776
0.33995768395678855 -6.578552320312491 2.8284877040871925
0.24564132236787928 -6.588677126444801 2.826767128224293
0.17494324406404238 -6.61257511305279 2.817272191456199
0.05843962391434389 -6.627349557153272 2.8135320136532367
-0.044441303087888004 -6.613666563330336 2.822540596847244
-0.10942210636010695 -6.601943886069435 2.8288867975026757
-0.18613603616797886 -6.578028738655925 2.840133853642255
-0.2845175008029907 -6.563322618377172 2.8464289008138377
-0.3956413369410852 -6.594849744092519 2.8309653483968042
-0.48619150605780553 -6.660693752810818 2.8011627555133347
-0.5487309643540967 -6.704515728619093 2.781305329943352
-0.6266895439632171 -6.763704657679655 2.754631373363257
-0.6805272371491617 -6.825110414592199 2.7280059135335564
-0.7325427617172224 -6.877966969400792 2.704371388796166
-0.8122452563143738 -6.923844556401693 2.6836322659368355
-0.856868135249083 -6.947023825209049 2.6725186232290326
-0.9254865867475859 -6.978792064646108 2.6567934249541234
-0.9908823303023644 -7.009884642809055 2.6409502281443666
-1.0574247382627633 -7.036688451176342 2.62619421551153
-1.123660492078219 -7.064955008462481 2.610555603492358
-1.188328154155833 -7.097599539212055 2.592494347848004
-1.2405645434465253 -7.113040695507284 2.581771626711442
-1.3049852518247433 -7.148668152601304 2.5630642218836486
-1.3725077196793034 -7.185760566227039 2.5422896479063497
-1.4343925689522885 -7.216352004591767 2.524074229189165
-1.4889512954791486 -7.246406419523686 2.5063499060934142
-1.5493404900414998 -7.288586913263099 2.483253458320141
-1.6092539307575646 -7.321871816224633 2.462579372134346
-1.685370792495442 -7.357343340689502 2.4378155553972713
-1.7495790983996615 -7.387567800737822 2.415777880535868
-1.8353439985830111 -7.433444696001676 2.383071441694197
-1.9135537576043258 -7.466432909242077 2.3542443597415783
-1.9631493392401442 -7.4869985910204555 2.3350930220516433
-2.026762236185878 -7.516741370198305 2.3077823692332684
