292
3.960132845473855 -10.009752714705396 -1.8399921710932114
3.8850112276129662 -10.00783321245196 -1.8304041826217567
3.8262511622494326 -10.007098831307772 -1.8191571823415809
3.7354719701278523 -9.995027731769023 -1.8047734191591114
3.641254232099449 -9.980924389025708 -1.7854785687917516
3.547837264566466 -9.98963535567531 -1.7405183567034412
3.4769475786867723 -9.979554517337949 -1.712774872097306
3.4180671037347325 -9.968534663913518 -1.6863550602489044
3.337753865808673 -9.964292116566803 -1.6359527559167215
3.2682158049601115 -9.937361404817675 -1.6020899145864247
3.2235090359328193 -9.905458824407015 -1.5853355199012134
3.1518831185866123 -9.871558417001767 -1.5391255738468228
3.0977905124441953 -9.840816042523544 -1.502556569827932
3.056968767677148 -9.821039108494269 -1.4670979789720187
3.015510979284369 -9.800697344430732 -1.4284354966153963
2.961653273341706 -9.77287557063944 -1.374861723261457
2.921776606458632 -9.763503307031678 -1.3191459046337708
2.8812262763370144 -9.746220827527578 -1.2697083042748336
2.8242535913823934 -9.716615297809048 -1.2051971931617516
2.7827317162313756 -9.696439283323787 -1.1556479582731245
2.742288764991022 -9.680295958118057 -1.1076525720673958
2.70489576526166 -9.672491346936189 -1.0516528314905105
2.6504058676541034 -9.657626151427408 -0.9705399609678285
2.6113644984488653 -9.646626408247915 -0.9045010164429212
2.580243119196642 -9.63726289092567 -0.8492375658509377
2.539882070071738 -9.627471716188392 -0.7679650102507121
2.5025891933145923 -9.606313122826368 -0.7098118228909804
2.465763632588332 -9.580278195239465 -0.6451248625093675
2.435604083160303 -9.561336411000424 -0.5875723523019807
2.4087722095542103 -9.571442558285492 -0.4850916904771694
2.3892025198278324 -9.58361125372748 -0.392398129323523
2.370673290359411 -9.583688643999919 -0.3213425690311238
2.352686717987266 -9.59015617422874 -0.2299253367857701
2.346290974251503 -9.603767175011997 -0.16961540812547327
2.342164778362184 -9.626390130328756 -0.08845933054371469
2.3275807908405675 -9.634023626808148 0.014061616006395994
2.314282383643248 -9.62918917310612 0.08208661231879644
2.3059411568792036 -9.629751996786586 0.14327504805550273
2.2974331318218946 -9.630577003985277 0.21377757521927077
2.2884018524369045 -9.627129998330476 0.28286806051851965
2.279817793936938 -9.62284993215677 0.35433682009204204
2.2728446192283935 -9.616432887016646 0.40482133107234364
2.263175073491817 -9.605259076143001 0.484111741312254
2.2575933952543705 -9.597594468316409 0.5493858125086752
2.253200473938758 -9.590443028238461 0.6045884039081462
2.2536574861163343 -9.58915807286236 0.6601248490139227
2.2465017789715436 -9.56737924758716 0.7454433982375461
2.2527562377910035 -9.565919468814906 0.8577611225641648
2.2662284638906085 -9.576769632498792 0.939439703977105
2.278205468339951 -9.57571309763688 1.0435773321800383
2.28323596413842 -9.565207683750907 1.1155464497240175
2.2872988484641987 -9.556369802746381 1.1688953699919893
2.294331701764042 -9.54531115171749 1.238100057243637
2.302507406530458 -9.53377491950014 1.3069199793969337
2.3122930367225614 -9.52040520230632 1.3901127305188286
2.328330137160636 -9.521821029068759 1.4451263760059898
2.347302560675244 -9.523723175686326 1.5144413901361025
2.3651216598358937 -9.522723210633432 1.5803606440057625
2.3895480387987984 -9.513215007554129 1.6715929519039159
2.413300394345586 -9.501551031697907 1.757071584520965
2.4408371580812194 -9.488454850006935 1.8462129587912919
2.45687678583775 -9.455921927041283 1.9212622336244862
2.468671584080714 -9.43321306515018 1.9711786798677868
2.4831667507528805 -9.40601893440859 2.028823031916927
2.4934462216814097 -9.387491251012184 2.0654066482356965
2.5030536332766546 -9.370175652826445 2.099598521513804
2.5215326684742037 -9.338470177824389 2.1607099211200262
2.544789623504376 -9.308718012369622 2.2201731853775257
2.5915963261816723 -9.304591517868843 2.2906824965355117
2.6387971315675616 -9.28690561504585 2.3627660276622597
2.66870498493836 -9.270975210148055 2.4079045108347596
2.7038014052594193 -9.235085556630828 2.4651366255358704
2.7446429534220584 -9.19328127415167 2.528792763511281
2.7528248180667667 -9.14683039024249 2.557681233660393
2.7743652494117477 -9.123996223459482 2.581222236697241
2.8289663689018267 -9.126247236815704 2.6160853776398207
2.8646918307979474 -9.111362331206335 2.6534067864912405
2.9155622098190737 -9.103379691054979 2.701369299004109
2.983158865051676 -9.099534478389508 2.7509353760799478
3.032240190688947 -9.094138136027992 2.785672983242346
3.064889853718317 -9.087717281051553 2.8083803740495172
3.099072070956357 -9.080995343346768 2.83215345267105
3.1525114057543817 -9.065902006242155 2.8682549216957005
3.2178947110606355 -9.046880721781337 2.910976486343433
3.2862526764437643 -9.023964640392347 2.9530621233899694
3.361453572130204 -8.997086859554154 2.9981188247387998
3.430888386886247 -8.976150502635818 3.036490668985646
3.5137997446639258 -8.947428997133352 3.0809078324705865
3.565628636628687 -8.928085706657535 3.108436705916538
3.651039192106956 -8.885328795441543 3.15185299950636
3.738998060126299 -8.818668012426379 3.1985613850640275
3.836241050827315 -8.798246388475851 3.239716034583008
3.8977883352946003 -8.743733180320467 3.2669967769650725
3.9516618631712586 -8.713033924755214 3.288549339593766
3.9978714953924523 -8.689947029633192 3.3058802752369507
4.1043792273064685 -8.656220144577958 3.3453564545825136
4.203305147594646 -8.608666421560173 3.379130601220452
4.294795488216473 -8.56439011481788 3.4080367672365863
4.3867846266735935 -8.510667566147475 3.4340593079258204
4.448793878517165 -8.479230364537171 3.4510550801020825
4.508692775131274 -8.449554317468678 3.4662145085868223
4.574901489809768 -8.41747924669388 3.4820052990072305
4.648951669347742 -8.381371968490582 3.500091704191904
4.688615998824045 -8.340909616167904 3.502504010736068
4.74950421547463 -8.291724133003006 3.5095263363442433
4.840172065500831 -8.221944911055783 3.5172259659264915
4.9099497139485315 -8.192458610302605 3.5264936615913625
4.972350929169832 -8.170188719757467 3.534916227260741
5.0436125621826715 -8.137302032869774 3.5392456166119732
5.101468394360352 -8.121799734999133 3.5444914141775117
5.228134184214568 -8.105813167475173 3.5582539254965866
5.300055984703665 -8.094591554057939 3.5612392841401928
5.4048532666815445 -8.036612392418181 3.5418560572141793
5.45811338793256 -8.028969245712851 3.5375227539889957
5.513612791442768 -7.99645156354809 3.518940927675434
5.6266552891583075 -7.962743385293825 3.487830730922851
5.698906607789739 -7.9696933873245825 3.477913885413775
5.7724340912185665 -7.98179367524309 3.4662466205069187
5.863482561182843 -7.992236324888911 3.444232668545082
5.947560975490175 -7.988885950151616 3.413701205277155
6.006589890406123 -7.987161530807089 3.3901397957219723
6.072742052616846 -7.993169206776594 3.3679361769747853
6.144833393988875 -8.007196836224372 3.346540304506939
6.194712522974873 -8.011517353859714 3.3284211693042947
6.279213796454164 -8.010803774982621 3.2922925991418657
6.385326286017022 -8.003808725066149 3.24243898043271
6.468314076255898 -8.021858489208881 3.22003202751341
6.5230999565851695 -8.025141889875995 3.2016521462374214
6.5856558898902025 -8.029228422043543 3.1800504527295343
6.649979849904505 -8.047774232941743 3.1678844219804487
6.698158262873526 -8.049108416152457 3.1513956154461304
6.7541424128843515 -8.063285118311303 3.1408271894662425
6.841856070499536 -8.088076182799876 3.1253694847560647
6.9019313447709045 -8.09900960030993 3.1117733894762702
6.96060452605728 -8.107359173169213 3.0963201685381962
7.018577892533355 -8.11416579258073 3.0802844123087727
7.091213183585524 -8.091912387227312 3.0447947925992116
7.140224984381324 -8.078625819389424 3.0173415839761857
7.195712673509925 -8.06030538189203 2.983172018995049
7.314363890199989 -8.03306817631371 2.923953797526119
7.397095129144786 -8.02136813470431 2.8872383285038286
7.490282207291674 -8.011299218330782 2.846091474155714
7.544782830648979 -8.020587005379815 2.8335866710701643
7.605970419595439 -8.021022969248984 2.8113692296631037
7.677211296168019 -8.029052939365583 2.7897973698486584
7.736670336715924 -8.042245275188288 2.775221609244717
7.814054035159974 -8.062003036225983 2.7566179725750732
7.864428424164507 -8.063290956556713 2.7380705809100485
7.948991640987014 -8.073606240781656 2.710049403638335
8.04434363439336 -8.098449463278603 2.684801018265831
8.108958421698068 -8.114487568878902 2.6663063089855106
8.171769793416397 -8.133572751754723 2.649405505224663
8.236840802649064 -8.162347732365047 2.635570801051357
8.300264100522842 -8.192315486211047 2.6221199312374557
8.345488436132626 -8.2132161599764 2.6119932733900564
8.426228266344129 -8.229065897735891 2.5799706429647387
8.507185517332585 -8.246048775364857 2.54495119271379
8.59918303645631 -8.290557272899006 2.5161986574375215
8.677139692241612 -8.31808277100892 2.480905208106609
8.758896927211488 -8.337028548650473 2.436144270803746
8.872260087482426 -8.429087479134628 2.388533357612215
8.91973036456118 -8.4806313933434 2.3673239250760467
8.96000693608661 -8.522000511937987 2.3463239407925807
9.022327430170495 -8.576547306970438 2.3049012994521174
9.07891178514665 -8.63579454773588 2.262066352708869
9.111801620053809 -8.672840976651186 2.23541979872285
9.179022679845742 -8.76425504697561 2.176692037569648
9.220172158559642 -8.820849563772796 2.133224129379011
9.265310293945806 -8.888647312678616 2.078747996491469
9.311986300753775 -8.976231277239078 2.0215346800956375
9.339643415191473 -9.026276396902693 1.9786119690296202
9.367222041079538 -9.088512717064903 1.9379729459682855
9.401864132361299 -9.162594945167772 1.8676251711735399
9.423207199557337 -9.208224984743765 1.799884746207322
9.446167967161745 -9.268779878208969 1.7320054057444134
9.45673059916787 -9.302365790112162 1.657086451310157
9.464968096888757 -9.340905437697153 1.582170745878072
9.480182168222823 -9.386231722628592 1.5496224210433194
9.501851414944552 -9.450850237010508 1.5114054332568292
9.526472992159581 -9.520622570195988 1.4599501477701062
9.548662116199498 -9.573363187860018 1.4300916796225407
9.56982095130831 -9.61951432666205 1.3999841243381768
9.59257517992185 -9.665027612959037 1.3597745869454656
9.621213868676476 -9.72013589893426 1.3108840291045676
9.65218127657677 -9.782472161942557 1.2536360105748996
9.672907379796952 -9.827006992134123 1.2034961614854474
9.700348389102425 -9.887249492874652 1.1384428422030444
9.712085695172815 -9.916692800232491 1.0813213385001872
9.721651489277932 -9.942457065286527 1.0151184898446097
9.74270519680402 -9.99493946107879 0.9538455126623953
9.755653793718864 -10.030814069451727 0.895653340337182
9.768183231323142 -10.068998261722895 0.8286532628668455
9.775573701582823 -10.095396390126576 0.7689487006865312
9.783327048974341 -10.127174309988767 0.6659383519596849
9.788457843333616 -10.157111941701048 0.552083708264141
9.79032133978287 -10.171364764644734 0.501087911760788
9.792196461294557 -10.188952063629701 0.4425772029115882
9.793132518483354 -10.212671771396334 0.34923184431512877
9.788776133192506 -10.248962079987285 0.22608984213086258
9.773779096446976 -10.23845006842509 0.14542946813553326
9.7448240588181 -10.203596998414563 0.055218754619479116
9.72322576935467 -10.1891366558802 -0.0009510593681512081
9.695763435621124 -10.169611847989227 -0.06010378145418138
9.620247328341902 -10.159692165072364 -0.10764953084132611
9.584223979817367 -10.168600595367167 -0.17493933408235862
9.547570875735877 -10.20158272053009 -0.2530613819137264
9.510751887704828 -10.217177640807787 -0.31922449389871166
9.480154578204296 -10.229581588320151 -0.3732596581618537
9.451711418910515 -10.239469821857275 -0.4181083144763955
9.420554312369726 -10.246369398907259 -0.46746254939728904
9.36746865528446 -10.259260302566787 -0.5507044661340592
9.316588354737618 -10.265675620891312 -0.6294538105671443
9.283549826065906 -10.261938079686866 -0.6815040988130878
9.244487543579767 -10.268790022978177 -0.7378234362682083
9.198828444464045 -10.253978343710003 -0.8043909132405529
9.150461384715383 -10.261823982898465 -0.8676322785959787
9.108097247273438 -10.247132809662572 -0.9211247179219797
9.058459279366145 -10.234600140177406 -0.9774377947324109
8.971450631297152 -10.208823156001715 -1.0646375468058211
8.906668721885048 -10.201880304796434 -1.1179384133838435
8.84765189830591 -10.205449721697534 -1.1568494479525062
8.808439842181002 -10.194742736006496 -1.1844372205226208
8.722852650021716 -10.162159424726644 -1.2430441718259655
8.659625401853406 -10.144139936313952 -1.2813963780794901
8.594885619464938 -10.11585821473621 -1.3199565941547753
8.523394138177181 -10.092351617488404 -1.3579223347889953
8.474129665209405 -10.06985086574705 -1.3845363597334133
8.412422125418464 -10.036579311109232 -1.4181682915247735
8.340659476042752 -10.006651405396898 -1.4515552874399467
8.291376670967036 -9.9723405048537 -1.4777614060462765
8.254720053593317 -9.943574067322912 -1.4977685957650462
8.212815145264601 -9.905294658545301 -1.5216088918269801
8.133734367886406 -9.815651373242845 -1.570919395160961
8.116087438458852 -9.801024302521098 -1.6189154302707018
8.10466989875412 -9.746565246070167 -1.6561614651571868
8.07597698127948 -9.639333130454423 -1.679102213811243
8.032068827625693 -9.55213165279669 -1.691321912646439
7.997675979652977 -9.496652189396206 -1.7077076490393683
7.939198019140876 -9.42357937658977 -1.7213049706285968
7.828833051415889 -9.326861011831404 -1.7601126499897897
7.792051532839623 -9.278867332384788 -1.776269186450134
7.75349507918456 -9.228134478544812 -1.7928948646478757
7.693480499874002 -9.166793964216254 -1.8128247806613875
7.6291795240001585 -9.168766936303864 -1.819763694655606
7.550168971962447 -9.165618049382804 -1.8279279367909027
7.4610263515297435 -9.173591140866748 -1.83391149502389
7.4046342215927625 -9.16960817927196 -1.8400231957664368
7.345131124195527 -9.164965571744034 -1.8466743409729287
7.274901818064701 -9.159069194939676 -1.8560645339364739
7.183238463362609 -9.157123204384693 -1.865585527759662
7.112589632178002 -9.148163179435663 -1.8762091992734917
7.023475071651278 -9.154634192222705 -1.8853548566572969
6.920590823558219 -9.1820390576972 -1.8900987140063636
6.842245553613711 -9.182896997219474 -1.9004562957792754
6.767476005268556 -9.187880376013847 -1.9101620043642775
6.705075800125759 -9.197333818907593 -1.9148375063444494
6.6378503688380475 -9.210020299978554 -1.9202311220102972
6.56903051904375 -9.225447706600342 -1.9249589100295674
6.499254075603117 -9.245638383283431 -1.9281430257735708
6.428645857848494 -9.268601012276562 -1.930508830621221
6.333102880025925 -9.29653987485243 -1.9342343704476936
6.210086568181029 -9.3379099894873 -1.9377890890243907
6.157705238905864 -9.353921059221024 -1.9396448398652857
6.072365687200855 -9.368898916450433 -1.946996209060364
5.981080038564522 -9.401356284747193 -1.9488772771289395
5.8682615293698195 -9.441570841456425 -1.9488059954333314
5.808657905069527 -9.453753767031042 -1.9537079213937212
5.75734471048144 -9.467239203553715 -1.9557315827602682
5.705959407641726 -9.482426463769976 -1.9571949111011495
5.639882810156236 -9.505203769074914 -1.9579424094175553
5.588018264351404 -9.526993498513423 -1.9560267632395278
5.515733775653037 -9.561024830918951 -1.9515743096521931
5.401362449035414 -9.6079347973094 -1.9475484268572312
5.337018388240773 -9.642491188857303 -1.9407873724440574
5.244813142727955 -9.687373386920077 -1.9326888647464138
5.18871313888078 -9.702694056184084 -1.9333325234767103
5.139491804413789 -9.715501029669563 -1.9338982736409667
5.058314957911868 -9.739369968314172 -1.9332222589093406
4.972024571523144 -9.776068329983216 -1.9260985758153821
4.901099843917507 -9.81269630087498 -1.915800063662842
4.832195834610056 -9.84818326864535 -1.9051965409000913
4.719931095801076 -9.89427590481583 -1.8927813606310655
4.64482709994627 -9.91427107201912 -1.889215128319057
4.588316222290515 -9.926309981288178 -1.8877245918041652
4.516016544778051 -9.938847074324377 -1.8867169266782247
4.461645605584307 -9.944262740030831 -1.887617453692605
4.401444957695369 -9.949443956138298 -1.8886452143782824
4.34165875849533 -9.957700379036446 -1.886831093053291
4.25867867058378 -9.976456637812902 -1.8779078809623848
4.159424678657677 -10.005021405808858 -1.8596413705025958
4.072121724497291 -10.01286343367331 -1.850335681947536
4.013410301020164 -10.01141978438757 -1.845274338255327
