495
-0.35266172654810424 -8.18252854493116 -8.436819468156635
-0.44450990012540015 -8.172317446329275 -8.457587995232327
-0.5399903079203691 -8.17491131187085 -8.473724720881826
-0.5978984623263969 -8.178114815150417 -8.483755181825174
-0.6619701861888546 -8.179773926618537 -8.497462330383527
-0.7274768120214027 -8.184007925116195 -8.51065666356197
-0.7940782500565393 -8.18466517610686 -8.528260407764265
-0.8851434143260564 -8.187829169920244 -8.554112533459406
-0.968412242366199 -8.192140726376598 -8.574973325088184
-1.0303432600443458 -8.192577251809077 -8.594472202299258
-1.0925840209519357 -8.194159989744342 -8.613922765544409
-1.1238064099561171 -8.195936427023662 -8.623296147948857
-1.155358307754764 -8.19869251025763 -8.630858125854346
-1.2180720508978198 -8.201653432042301 -8.65216650851458
-1.2841389672015595 -8.205448190807148 -8.67350650223689
-1.359701887121548 -8.212744202912855 -8.696479327234844
-1.425711946291684 -8.22097391323098 -8.715658060080603
-1.50105273253871 -8.237065113204915 -8.73273347888492
-1.5709886789826024 -8.253704681607541 -8.748224853152099
-1.6401369199085694 -8.267654366316442 -8.766092107791266
-1.7174050022502252 -8.281095248703343 -8.788518168898825
-1.8083370102326122 -8.297709602765815 -8.815566896582894
-1.8852932018657882 -8.312996944332424 -8.838069802995722
-1.9492123114686521 -8.325212279108504 -8.858198518117334
-1.998839875010916 -8.33544764962441 -8.873621013796079
-2.072220358603338 -8.35326986711976 -8.893566186506614
-2.13091101929853 -8.368505057924821 -8.9106975672318
-2.187110893090966 -8.38253856082285 -8.928425697956971
-2.2412355881980996 -8.395090877313983 -8.9464693624384
-2.3293185725615775 -8.41571905610017 -8.977453814447397
-2.4322592723926713 -8.440622223392937 -9.015391861994924
-2.518822475455024 -8.457875048974614 -9.052752302050802
-2.586841964159614 -8.463565505385121 -9.09060203076643
-2.6463313587463784 -8.470116481380327 -9.123541130282046
-2.703915084757525 -8.480012061899 -9.154080875268903
-2.7598980892008527 -8.492177406259628 -9.183652945295002
-2.832564680809144 -8.508470321782065 -9.223556014966316
-2.86787590334523 -8.517556686628637 -9.243758274083845
-2.902657993792833 -8.52696833022831 -9.264327994862391
-2.9603906372814714 -8.541659496313512 -9.299194887232556
-3.011362825570736 -8.556092956624543 -9.331315347953964
-3.0617238064414547 -8.572485411810884 -9.363341633064596
-3.1125771119767798 -8.590545055390034 -9.395823450580572
-3.160920376097148 -8.610217075174312 -9.429390146143504
-3.2099931852681163 -8.632658795949022 -9.462733104235774
-3.2907448749508434 -8.671659818275769 -9.520336746770326
-3.3643425601755657 -8.701568920242782 -9.579697584327906
-3.4049119459665427 -8.717406705700247 -9.613909951325056
-3.457016371777348 -8.735669741475236 -9.660349264681926
-3.5101548384289876 -8.755861074964034 -9.707952402205201
-3.5462611459084643 -8.771231981675744 -9.739552626941183
-3.5938279439285106 -8.794936051012836 -9.778654368388555
-3.635845619486668 -8.817524259177658 -9.812781533279868
-3.678104542935972 -8.840482685107236 -9.846926773101838
-3.7238884794060017 -8.86064566972094 -9.884193560537486
-3.765055831798578 -8.881807535999117 -9.917859206956994
-3.808847202668651 -8.903046855414368 -9.953773306521672
-3.8528673240936477 -8.923445969666304 -9.99069234653792
-3.896958519203255 -8.943419236481136 -10.028519146331721
-3.9683908430676587 -8.975558769244222 -10.092093330342855
-4.031659990121959 -8.982973872611351 -10.15728145523586
-4.083199268494699 -8.98844491010081 -10.212706134653263
-4.149025389394254 -9.002824276736494 -10.283938549530863
-4.215398923176513 -9.028732952961255 -10.356705905099979
-4.269843356885152 -9.049803161679284 -10.42148247127809
-4.311370607405835 -9.067193780590653 -10.472819304785048
-4.351230533908214 -9.08952936536174 -10.524494597395982
-4.390829712798445 -9.11213208130838 -10.577517531982995
-4.443755417624003 -9.144211627997004 -10.654821087789763
-4.501253143591513 -9.195097916774786 -10.745281810758382
-4.535188807000408 -9.22840059210574 -10.803972875844593
-4.5576566097311515 -9.251960597718874 -10.843737236542502
-4.580042834090781 -9.275673181639792 -10.884144627304885
-4.600851865542691 -9.300386358770414 -10.927661987840324
-4.620588811803666 -9.323296350622961 -10.970499921765263
-4.638188598213232 -9.345787915847453 -11.01302565151331
-4.656502501196676 -9.371882070978536 -11.06195694147479
-4.676384723020978 -9.39578667288528 -11.11098123698704
-4.699153206396617 -9.424315128770985 -11.177230474983087
-4.715005362640921 -9.444613790079424 -11.224519133192878
-4.731242598835799 -9.466665466463027 -11.272992853372276
-4.745240602841585 -9.494682509168193 -11.320058975348495
-4.76359709776182 -9.531310677456972 -11.384131336978953
-4.775724240969833 -9.555588062600934 -11.426756460731958
-4.789607200578285 -9.584100253698214 -11.479570302144605
-4.8035411241717165 -9.611633837414482 -11.533916899877415
-4.817042209461578 -9.63874829407529 -11.589934361539271
-4.830554505458421 -9.666358306150828 -11.6468216583914
-4.8420215845043915 -9.690196185649901 -11.697464904044718
-4.856603142183192 -9.719748631767425 -11.765056118849586
-4.870517194352601 -9.749035042998614 -11.832410072405406
-4.881424775504808 -9.773659818989191 -11.88729531450609
-4.892843090172427 -9.808377139957303 -11.947026429234324
-4.902406486777756 -9.839928838714737 -11.999409913940813
-4.915539753967947 -9.881953708575718 -12.075306139942487
-4.928372576526601 -9.925118736820536 -12.15492065518249
-4.941018189060717 -9.968828963882116 -12.236040490049895
-4.950668179480931 -10.00009451114267 -12.300730702613834
-4.959058196228251 -10.041650055951111 -12.362069394714347
-4.96887013305625 -10.089530121273352 -12.439016885612325
-4.977005264564711 -10.169968720659648 -12.509025886663004
-4.985121056016057 -10.253763063192482 -12.58532848822739
-4.99309437871976 -10.31167941028411 -12.65968483287822
-5.001493431692899 -10.356231885509883 -12.739887955225477
-5.007409811078209 -10.394423014589417 -12.80650058410897
-5.0146828682847095 -10.433423314669312 -12.885897336057141
-5.023699466231066 -10.496148559714445 -13.005057735077784
-5.025978488251911 -10.532723987641898 -13.061006252883189
-5.0301364368292445 -10.564982455014636 -13.106440335495861
-5.033006571465021 -10.596252436935274 -13.151936265326643
-5.034785273616138 -10.664368068866674 -13.215957253864435
-5.037481317610689 -10.71798767799605 -13.28119410383821
-5.039290465294418 -10.786613180260135 -13.356540863934235
-5.040136967931664 -10.84588782464397 -13.421547336747736
-5.040931739366253 -10.890386995668663 -13.485150085971071
-5.040961117509348 -10.944023266956329 -13.560602526592326
-5.040264379084052 -10.981053899456432 -13.636249521423803
-5.039165961597044 -11.014027419007233 -13.694028784504464
-5.0373916537487515 -11.049953783427437 -13.761412923708477
-5.034991204880571 -11.078724942241395 -13.807396413704474
-5.032081264397714 -11.109300302227762 -13.858175957977721
-5.026005898678847 -11.157875805256348 -13.948786906704115
-5.0209807617131705 -11.189761571858542 -14.003133646307301
-5.0099778720250585 -11.253278194134312 -14.097010795070979
-5.001318951774968 -11.295428252294117 -14.153799508888447
-4.994536026296834 -11.326083183833791 -14.196042570489443
-4.986288994305664 -11.355791209837626 -14.238453266322715
-4.975595685365333 -11.393781753719319 -14.292730543858468
-4.961598032185608 -11.43586388610133 -14.36631757469928
-4.9473150029557456 -11.47078909984009 -14.43028641967808
-4.931790727143853 -11.508456697967487 -14.492618138827947
-4.919228216325915 -11.538764375314349 -14.538916774228937
-4.896148657116143 -11.570067355470261 -14.630104790114423
-4.867663934094202 -11.6130165475483 -14.726516751785894
-4.848423794240011 -11.637424724556894 -14.789770979438838
-4.828356296328809 -11.659408377432339 -14.852821136182573
-4.807762424102804 -11.677546629627836 -14.91668781804146
-4.775240128248089 -11.698873640511016 -15.014770367844331
-4.754749010351525 -11.714034385932194 -15.071166410468564
-4.735896981691582 -11.735223876136429 -15.116263150347145
-4.695528025466185 -11.752003019834543 -15.225674430612937
-4.666269453993338 -11.776900307823428 -15.29068777603128
-4.636886900176604 -11.795123671862912 -15.357420622085094
-4.606067333203375 -11.804378426331592 -15.43086371611274
-4.570159840701583 -11.813909247391845 -15.513644837079383
-4.542784975036484 -11.82220252536645 -15.572325810309994
-4.505385963773833 -11.844528210486637 -15.642703473462074
-4.481642066260705 -11.859245987309812 -15.6848736659921
-4.429425651486238 -11.895407423403615 -15.770626461571286
-4.360495209327797 -11.943582077390138 -15.871412190394743
-4.317091714930339 -11.970694337642342 -15.9329314274773
-4.244714787099066 -12.018570705111399 -16.023429893751707
-4.205638346404031 -12.032882681084308 -16.07532598073333
-4.16817555837114 -12.044717657963744 -16.122487663962307
-4.11669480887876 -12.076144127301973 -16.171612138905015
-4.080751673535158 -12.098694940797827 -16.203221886363725
-4.01641882677797 -12.135802678934683 -16.255076955354223
-3.9687972802598335 -12.161944445890782 -16.291907223923527
-3.9190962015479203 -12.183706760498529 -16.327913969673563
-3.868834697194857 -12.204556853989814 -16.362568279817314
-3.8242516759536818 -12.217972208369739 -16.39283771292463
-3.7641859694982864 -12.230687095103333 -16.432805245096134
-3.718139837332587 -12.23890801283849 -16.461710298294857
-3.6383942278058052 -12.252650937550769 -16.507656269416568
-3.5189571648067455 -12.252879135737725 -16.577847033569302
-3.4498915909976633 -12.28114032633905 -16.59851057152398
-3.3716614387797645 -12.31098446222018 -16.621705924888833
-3.301074748297312 -12.333227955212678 -16.642333538005275
-3.2317971815074324 -12.351089727727182 -16.663012407932403
-3.16278679370098 -12.36610508106398 -16.683023482182506
-3.103782242461793 -12.381480460132519 -16.697769517243476
-3.0158076436231545 -12.410332188158083 -16.714811835561463
-2.95544743959575 -12.42798564234512 -16.72666074200864
-2.8895101205099074 -12.436058863070073 -16.742826455073427
-2.832606948453937 -12.443550251123426 -16.75534181410009
-2.7552874678532273 -12.455457519953066 -16.770979688686978
-2.6756637842853124 -12.469132660914683 -16.784648421423405
-2.6147953139477886 -12.50127396621061 -16.78734164585988
-2.5503924370804123 -12.495417780506664 -16.802396472895683
-2.4927059557272386 -12.502369781172046 -16.81290030243133
-2.4365872357630014 -12.506056384506158 -16.823598148435984
-2.3857103829938926 -12.493189467714199 -16.837776804475855
-2.320836716424041 -12.462319288979165 -16.861065516445056
-2.2400610963632523 -12.460809754606894 -16.876778987179854
-2.192189165666642 -12.419123619999658 -16.897410125375195
-2.125256097010544 -12.384401872105068 -16.91907759040126
-2.069517794963391 -12.378142954107982 -16.930314430797946
-2.005881567404991 -12.340374682396353 -16.9498512963229
-1.9491933159459989 -12.319724802636555 -16.964600895766957
-1.8676499251333554 -12.303603773740091 -16.979404479519033
-1.7913286935126065 -12.278843673524964 -16.995916242098584
-1.7321124846968838 -12.254559928025584 -17.009207463401868
-1.6597662712174448 -12.223616341393535 -17.02515202694688
-1.5534189411778625 -12.18402271579447 -17.046236464854516
-1.47441719871145 -12.156334080569003 -17.060661149976365
-1.3850482428592905 -12.117762061922313 -17.077125384774373
-1.319381536295597 -12.091736264164151 -17.088886441351523
-1.2544075396387488 -12.061676749226164 -17.100576935678518
-1.1848810362148066 -12.021335385071835 -17.111882500711467
-1.142234230976142 -11.990885102994215 -17.119379773692064
-1.0806822703497887 -11.959722879855413 -17.12826216768384
-0.9978965079119587 -11.936635982546326 -17.13817721270021
-0.9316046795853482 -11.916115826947781 -17.14462180018283
-0.8708690000796031 -11.895947939477548 -17.150726543269744
-0.8097599840944685 -11.874952345158258 -17.15652663924056
-0.7483884347311659 -11.852915577415613 -17.162328486199073
-0.6446034742475362 -11.822585537036591 -17.169633754204597
-0.5591399796575898 -11.795015501691065 -17.175988314399667
-0.4982895597728254 -11.772910353533431 -17.17992177857558
-0.43269038639544244 -11.74400315494018 -17.18419956868976
-0.3593370447529265 -11.715074886848535 -17.188298955926005
-0.30353416310055703 -11.699098184162173 -17.190754169044567
-0.23656179025655177 -11.69032806842737 -17.193000388187702
-0.14546813459087327 -11.669409757302265 -17.195978411312286
-0.05799524166394887 -11.656517806419602 -17.197721107092587
0.04919776835231371 -11.647685214077518 -17.199262697257037
0.158813778795319 -11.624802009186844 -17.19976895726883
0.26243330127730746 -11.613716170376833 -17.199926772534234
0.31268516366628973 -11.609991211790454 -17.200143499395153
0.3908151616306641 -11.6078313453679 -17.198483646613095
0.47186050093557075 -11.602912210127528 -17.19722883101415
0.549448423293807 -11.596318270355836 -17.19547870921681
0.6187404864059884 -11.590555067632675 -17.193615895124218
0.658413119094136 -11.587255035993238 -17.192548550198733
0.7179419403734582 -11.582311776464678 -17.190778207304568
0.7765969151443357 -11.57747578430696 -17.18849801105014
0.843190124763231 -11.571630711367359 -17.185644869199297
0.9117790951369644 -11.566298672536552 -17.182884330369074
0.9778116398564876 -11.559526322414655 -17.17955363362221
1.0468530818420045 -11.553486243787944 -17.175956994955104
1.11387238177888 -11.548629357564051 -17.17184837153306
1.180271919124649 -11.543009712741878 -17.168051087893843
1.2484218540726986 -11.536905694450471 -17.163111110570497
1.3120759610644799 -11.528932039574803 -17.15938337793284
1.384381205857354 -11.521344289209189 -17.153938017413726
1.4430244779884307 -11.520728982312733 -17.14933547602558
1.4929420670851894 -11.52027319864325 -17.145103709246285
1.5609775994387245 -11.517798442173286 -17.139359474060473
1.629514715900836 -11.514464723372859 -17.13339504401176
1.7077323063960648 -11.509550719472994 -17.125614348784108
1.7828985695229915 -11.499031600407422 -17.118520415150666
1.8523850609270849 -11.489568497747104 -17.112013781326386
1.9220121018020542 -11.478518119002588 -17.105673334232254
1.9917253219300923 -11.469008768698512 -17.09825883624672
2.0789878463438978 -11.460548006325215 -17.08869492793527
2.19387028287606 -11.453548629537268 -17.075043477481994
2.2503469601059107 -11.450239732693777 -17.067989896631595
2.311937990072522 -11.444719388522886 -17.060146461279384
2.389927789676978 -11.432377709341885 -17.050096517957815
2.4603981387704934 -11.42320069738494 -17.04133873617705
2.5298480578371345 -11.412393490563918 -17.03207560523324
2.598691829982088 -11.399183480869118 -17.022813674838098
2.667010309436722 -11.384422149202871 -17.013452914051072
2.7344448111131783 -11.366627817052247 -17.004250220932686
2.834902578201423 -11.339880005077044 -16.98994438857179
2.934951265554779 -11.322553399419197 -16.97297809650567
3.000372206840165 -11.312335732583158 -16.96099790502996
3.055751840066886 -11.304748512334903 -16.950683162701292
3.127270642355973 -11.281217994503583 -16.93789332883194
3.2012746628405893 -11.260960940711723 -16.923650025666152
3.2869111787262737 -11.249817522254208 -16.903623041696672
3.3701368505931484 -11.28239499134672 -16.87643506741131
3.4121429085615524 -11.229588198025747 -16.872799991005927
3.49129919969614 -11.200017623852451 -16.85413000646844
3.5679891726511723 -11.183833261862008 -16.831146507212445
3.6182568813897937 -11.1531787366198 -16.81942244194891
3.6614041751600963 -11.126600406054436 -16.80856414198144
3.7606729397902283 -11.097515114315938 -16.77433474330493
3.833418283289647 -11.039753546207285 -16.75323128440507
3.9188792074848244 -10.994424408140503 -16.720819085471817
3.971450558024138 -10.969672983774432 -16.69840904501785
4.036591586132005 -10.912712350834276 -16.672043514212195
4.1011402537678014 -10.858055307797684 -16.64285977723829
4.16812485926089 -10.800228466652777 -16.609677337669385
4.225443881860408 -10.741374512016035 -16.57951045126189
4.286545121139293 -10.697184910400464 -16.5441262195456
4.324664997470175 -10.664270344290474 -16.520747620229994
4.361815809620518 -10.63206354499327 -16.49637747474182
4.407149930576964 -10.600730496045689 -16.4661460243007
4.449186693638009 -10.564212173664881 -16.437034434816038
4.504340262426641 -10.509732128186903 -16.397050736069215
4.5647334531182855 -10.455340255607803 -16.351240213465495
4.608979230793485 -10.421876842384489 -16.31607194176943
4.653224491459339 -10.383029588163168 -16.27999727059553
4.691945742483144 -10.344476295735726 -16.247402242058893
4.752038786540853 -10.286886368112919 -16.194959971989935
4.808610477488766 -10.231779050710513 -16.14394579070043
4.879210341503251 -10.18296653843505 -16.080242577132307
4.925858353494459 -10.145087113574352 -16.036765979267713
4.964223234255287 -10.110465051207699 -15.999781865150435
5.005928069163073 -10.083781147671019 -15.960395670379608
5.0472325508430655 -10.05940508016226 -15.921813576463439
5.08586150350692 -10.039040798649035 -15.885571227203645
5.153892454501951 -10.010846896662288 -15.820238326983915
5.212900640140972 -9.98705535880155 -15.758190157148988
5.281406649380113 -9.947879427540371 -15.67689989435046
5.326486285078781 -9.90991639993787 -15.616345865821256
5.38926607027153 -9.854716819307837 -15.524081394899827
5.4334463021327934 -9.817355419325853 -15.456108169976815
5.484017580658186 -9.791212227282161 -15.378804092587533
5.508126555784055 -9.76853839218272 -15.338670517055682
5.532780672368498 -9.737619990973283 -15.293568971761143
5.565188872918344 -9.679520550252102 -15.227830882515534
5.597534635005068 -9.651941007318834 -15.16861544833877
5.615655377404564 -9.604551827221412 -15.128609543604565
5.635653998530791 -9.565573869939241 -15.08588633424931
5.6573427754455174 -9.492172575548024 -15.031316849540673
5.674278009261497 -9.454128049842813 -14.994067449643705
5.695367366409614 -9.407757153721231 -14.949303145105219
5.716891800649959 -9.356661622835228 -14.90557983471686
5.733837755523282 -9.315489125920903 -14.870032382673223
5.755453763888217 -9.258738596451972 -14.826378303837771
5.772869533037864 -9.213354234505717 -14.792845148884993
5.790835870590575 -9.162396867052463 -14.760654095494893
5.814950378838877 -9.108062600945404 -14.722709002611918
5.8525605569187595 -9.051791479027488 -14.670839151555196
5.880083176362111 -8.992072933382696 -14.637873269695163
5.904955368258822 -8.937069090680906 -14.61052835311052
5.931281140253794 -8.880699161445925 -14.58741721478934
5.954082709355928 -8.832246017208794 -14.569324938530357
5.984699237935148 -8.772431699371493 -14.546476178144626
6.016871294208555 -8.717716168667865 -14.524047913931735
6.048359000841714 -8.662861801732124 -14.503591391687607
6.080390592739987 -8.608561616775516 -14.483123078729687
6.112287508695591 -8.556380494275325 -14.462528994701817
6.142782393360524 -8.502866134373855 -14.442861670927513
6.174375778793093 -8.443189878793161 -14.42137852680576
6.197528781560586 -8.390588190846724 -14.404667304956686
6.226061739206303 -8.336287814634534 -14.379988780699303
6.266823458525793 -8.255583109979494 -14.336409350383615
6.316342589944815 -8.19644771840496 -14.266224430763508
6.34053046764871 -8.161325255231672 -14.225478259602813
6.36193005174928 -8.122648917070574 -14.181826419081037
6.388101081600326 -8.067892152621042 -14.118278478355808
6.399906235426081 -8.029990977334407 -14.081283642114364
6.4149459284257375 -7.972366385477434 -14.026430788106303
6.429312221790767 -7.914584162437464 -13.970669150897042
6.439929880003063 -7.886344605903393 -13.929955891275736
6.452950585534572 -7.865456678046041 -13.886266429424818
6.472192138442103 -7.843653528015219 -13.823037199896842
6.488809144776158 -7.800354278291104 -13.750848257257257
6.498984289083753 -7.775100550558111 -13.705593757436844
6.510058850476302 -7.741895416575664 -13.649738284539051
6.528855042004802 -7.726471398185851 -13.5814052679981
6.546410812999542 -7.712728189099808 -13.512168961545683
6.5652453208142685 -7.700639549903466 -13.440487312833643
6.581731871675204 -7.6858906501279325 -13.367769086342939
6.590537356047873 -7.654298639624832 -13.30752158560125
6.595417881757904 -7.615007276875868 -13.251184034002808
6.604146739518432 -7.581093032278314 -13.183008585950304
6.619741035582501 -7.543696634117396 -13.074701049672374
6.628702709984592 -7.51958854021011 -13.007365921967029
6.636841627926247 -7.495961590109207 -12.939816580442791
6.644226969185914 -7.468555768273314 -12.867437001728945
6.645513105278632 -7.4361762750654385 -12.81645501958075
6.6525813878221856 -7.406742665749864 -12.72967384810022
6.658170310919435 -7.378730107598733 -12.650741048906276
6.662014087886361 -7.351505739388925 -12.577517747079884
6.65941555630465 -7.319667622380731 -12.519701653394343
6.654812371972839 -7.275880709030455 -12.473224957167954
6.649582168422525 -7.220603228497247 -12.386388307529888
6.64867078902853 -7.193263268295009 -12.33515123829432
6.646877384827666 -7.146845288409571 -12.245814015252218
6.649174736973133 -7.111729299956433 -12.140513503319244
6.651116144136993 -7.096541405586793 -12.09060867134334
6.652697082144914 -7.07844965195946 -12.02897313321376
6.646634330308582 -7.035627513133717 -11.951883236446328
6.653967703862857 -7.031186324047381 -11.876292857132452
6.664474650472653 -7.023277821252819 -11.75289925788076
6.660968627606382 -6.994038278880341 -11.664046670898788
6.663225045611793 -6.988937478544088 -11.609429688142267
6.664859012933991 -6.980354041247418 -11.531523099934343
6.662867786975894 -6.967581018720873 -11.462587136513218
6.658793284256457 -6.952733991415611 -11.394127952868665
6.649854972972077 -6.931325460822256 -11.29807039295741
6.644550002978979 -6.923902047950191 -11.190208596146796
6.6378432477928575 -6.9184156894767295 -11.122240638415374
6.626023635697295 -6.907673250329639 -11.040713177709165
6.605877614350264 -6.888264135137007 -10.959321086718816
6.588137224288827 -6.89128231247688 -10.853806523617088
6.561042117655735 -6.881348608717108 -10.764673386398638
6.53363082365234 -6.890914303682253 -10.664323155045377
6.5083759327509245 -6.883321241317871 -10.613630740648787
6.477682633497553 -6.873162035665649 -10.557256132866979
6.452597140556544 -6.876252913246752 -10.503759336618856
6.413982007141889 -6.873315739729726 -10.438882936658164
6.377819741106129 -6.874467462233415 -10.379255410604753
6.344670131658133 -6.881548594322819 -10.323064627338038
6.307048260082951 -6.88746096980257 -10.266178068427678
6.267637092986049 -6.893538340597988 -10.21011415637459
6.236698180918175 -6.900975137094978 -10.166068481427072
6.192419433440371 -6.923234594017094 -10.097131212012098
6.163925965250339 -6.936514744762761 -10.055953980262952
6.122436760619737 -6.949482149978159 -10.003299985776739
6.077430165196555 -6.9645804134660505 -9.947570811828026
6.036156593673976 -6.982357411019342 -9.895661784722165
5.985496145190473 -7.001362282098384 -9.836494337973111
5.943055347205305 -7.013237933529389 -9.792442817158769
5.909725327031717 -7.051431706617441 -9.737266330039596
5.818536146648368 -7.066945032027823 -9.65630096455888
5.7522369658493275 -7.08643001776856 -9.595029583210039
5.709534975456322 -7.098672680161741 -9.556918911585594
5.655808685159163 -7.10716192909525 -9.514824383600462
5.570409207949798 -7.1157980878148255 -9.45361986639471
5.51484263706824 -7.118075120249303 -9.417272177214251
5.439075421777685 -7.11144953258399 -9.374934002058879
5.373066461137979 -7.130316733498232 -9.32672239167368
5.299994152778787 -7.14855277733651 -9.277600343350908
5.210641766468907 -7.147326659099949 -9.235378736626586
5.145365110003502 -7.151615586583061 -9.205610459597857
5.087912117014059 -7.16887602983344 -9.172902434039731
5.02951045698605 -7.201525599758824 -9.135113288226837
4.9900113749968975 -7.228038977825019 -9.10857033835834
4.92106530272365 -7.281500842693903 -9.062154805576647
4.843419169091848 -7.325539637190031 -9.021107417457053
4.770114562519128 -7.38707319133799 -8.978492275996476
4.7345316642693875 -7.4205349642368486 -8.95715178660167
4.663229898036145 -7.479672030801092 -8.920417567064003
4.621891440488782 -7.506937523295287 -8.903566043859012
4.5608027870915 -7.548045808466302 -8.879503058232096
4.493737585521967 -7.610632030839438 -8.84883397328326
4.428398434064607 -7.665822827967261 -8.822999704611576
4.3798615640463 -7.701595905871354 -8.807093557268324
4.306527946015147 -7.745906114248996 -8.789183275401278
4.256358541549868 -7.779601887637439 -8.776522773750614
4.194103632677166 -7.818959248118258 -8.76298778813695
4.130824313335906 -7.85087022152034 -8.753399365094971
4.083590141561388 -7.879109975492302 -8.746570182344616
4.020178704958098 -7.918416583546355 -8.739800411052048
3.9691739352280573 -7.944925065735344 -8.738078241475105
3.9157161812056724 -7.974378859840817 -8.737819310600848
3.863880623163481 -8.008260464890691 -8.736971043117812
3.8196769456970348 -8.034538804824486 -8.738088488332892
3.7465167286155525 -8.081905513873812 -8.740364951661114
3.648783788107508 -8.136829518136645 -8.748536413621018
3.6046266335213053 -8.170413487697553 -8.750195855602023
3.55572692517016 -8.20552966226394 -8.753184561576973
3.4851306468839462 -8.244336793009094 -8.761753262790009
3.418918820061193 -8.272430821666873 -8.773201778093323
3.3522055361143615 -8.299684079712279 -8.785389453975174
3.276448005633325 -8.326284957380516 -8.80096814513701
3.21451488675443 -8.344092384197802 -8.815125398290238
3.1550057039683583 -8.363207671570306 -8.827978300337705
3.0790336679840102 -8.391497382712375 -8.843175268302815
3.026520620799303 -8.410822144660903 -8.852718665412997
2.9473272677234474 -8.439913153547936 -8.867357156757972
2.890477605526529 -8.460385056241838 -8.877041329403617
2.8185958422562267 -8.488313774419499 -8.88707367989037
2.7698562325965863 -8.508423560131753 -8.892577612437652
2.667572121147943 -8.56167846258761 -8.896836844028865
2.600859604891647 -8.590694833398357 -8.898932388878531
2.541015291634916 -8.61133815183436 -8.901248144339139
2.480003815405773 -8.633277298652766 -8.89960101049158
2.42863513839643 -8.653831584347849 -8.896095608427146
2.3692099765378414 -8.672425519585417 -8.890922598080856
2.3014947259978102 -8.684763533859403 -8.887304069825529
2.248888081964478 -8.691828378714352 -8.88500894768081
2.1821472104165975 -8.700413772101454 -8.8773715900717
2.113076298179174 -8.717654845333474 -8.860745695534128
2.0655893687896967 -8.73053306799176 -8.848022085890488
2.014420381745696 -8.744046605404774 -8.83310308232895
1.9541560240297968 -8.756892442616156 -8.813731244998372
1.8883801507653446 -8.764033968911033 -8.795287451188145
1.8239868216436272 -8.769353411167058 -8.77700346002193
1.758177858725215 -8.772941273259608 -8.756534822933311
1.6934954729504546 -8.774032285206355 -8.736970553414725
1.6289158086354074 -8.774041254167894 -8.717103681340333
1.5652882717124277 -8.773270304959679 -8.696282760119043
1.5007215939286518 -8.76908731850001 -8.676042945838432
1.4187437714114364 -8.753048870669943 -8.658009069845559
1.3098852385232747 -8.73563792732675 -8.632971992352882
1.2384132819418439 -8.709669402433306 -8.627161560669961
1.1802191059237426 -8.695653265021072 -8.616510081349567
1.0881675533238357 -8.67979346566854 -8.594625137173423
1.000250134089 -8.65962668707549 -8.580034175660266
0.9409086776373672 -8.64709721167992 -8.570082416794207
0.8776006606063749 -8.631327422830388 -8.561419562024941
0.807116073225272 -8.606491406447477 -8.553465884856667
0.7211614478414308 -8.570356855334389 -8.539681836981106
0.6604132911146341 -8.543460804194883 -8.526151138814686
0.5934641239882026 -8.513370257913138 -8.506814114720214
0.5394910387114127 -8.49115182450324 -8.48654417178691
0.4757462109162107 -8.44779123529906 -8.478414706439917
0.4297405910368792 -8.424594630875731 -8.465265673204676
0.3894145267319391 -8.39094568492644 -8.464234149262655
0.332781106905099 -8.357908981176926 -8.454106608071477
0.2769007919805644 -8.328361896808127 -8.442434772904651
0.22079489148232256 -8.303403009761277 -8.432292718073796
0.15428165413852768 -8.276605260211007 -8.422160234451873
0.09973793152217691 -8.261681008496609 -8.412469015822452
0.04307373351043475 -8.25109176292704 -8.403477612188912
-0.03263957130524009 -8.24072972895218 -8.395548453957009
-0.10743530668363865 -8.231953339538865 -8.393695302294645
-0.20173094328292973 -8.219903902619572 -8.398085208289562
-0.28559480071231125 -8.195528334933373 -8.419223039806898
