313
6.6569680778097915 6.026037048123516 22.180900413936882
6.605205781242274 6.006603473896637 22.15854672163444
6.550371659515866 5.98114560218293 22.1344890856175
6.482640235426418 5.94845294378115 22.100349272223728
6.44254046630426 5.9257225115040395 22.079987891890408
6.386834179979553 5.890556369576568 22.050593583515173
6.329847866070489 5.852592945175274 22.018529957590882
6.293436731895172 5.822045072887344 21.998402219068854
6.2452952104608155 5.774424592631595 21.9702329776559
6.215074735841048 5.728398413624163 21.96604134808788
6.189253398138378 5.679771581692485 21.962053796850594
6.1555547829761625 5.619085456765369 21.953612596801136
6.113608360842088 5.530159105070989 21.945819718983227
6.086431462725596 5.483414882219719 21.933674659837298
6.040785604835801 5.409041792608579 21.907730552246694
6.009142751462205 5.348328621803359 21.889660808875053
5.972981317606793 5.304943198347429 21.856026701372386
5.943287935737763 5.271091787889717 21.825127816906715
5.908829758675342 5.2136498514145835 21.79077414205947
5.883202073007094 5.17379951485452 21.760301457121344
5.853677147524367 5.1268024474219125 21.721301288874166
5.825061668943622 5.074966281299768 21.680037024777576
5.795287705067354 5.019266187735029 21.633461311532024
5.757132460060227 4.930952301891681 21.561531504954395
5.7292619974830785 4.847034366099407 21.506931832193175
5.711643071207456 4.791202972172775 21.46714034386078
5.694669960256748 4.7204880173922525 21.427373722777144
5.6824918984517065 4.65962502184899 21.40032825012371
5.672769389590922 4.611176045473839 21.3695860751508
5.660747332753724 4.539152283961707 21.32940470558957
5.652575927345255 4.473102449338945 21.307393375347196
5.643624322281061 4.3865849834109225 21.269387143509416
5.640036851623712 4.324881185442678 21.236113677943987
5.640593924172071 4.267131768045983 21.20523010417286
5.643769349288558 4.202546111557111 21.174855930243883
5.649672226791349 4.144165832761848 21.148838681085596
5.662630641669024 4.0854490290492524 21.121363938396552
5.67770355915648 4.02535458839215 21.09654711463162
5.694644930353148 3.965295762440846 21.07255597111328
5.71392584255541 3.903329199107363 21.049366907732896
5.727055976459662 3.8383054927568416 21.024408756575134
5.7451361725424075 3.758055395415372 20.998629221990967
5.759756848333966 3.6658642721823878 20.96994397140412
5.770153598836732 3.615147517484695 20.95499690003017
5.784279492246718 3.5624130991917053 20.9365873722718
5.821248385384438 3.506527499646546 20.91437513160502
5.834706208184381 3.426621015489163 20.880148942299627
5.8615190405711655 3.360129331430452 20.837236099649008
5.874014600220923 3.3091124197768305 20.810868001271096
5.8889693088053825 3.2539062175524363 20.779638236029385
5.895838705490483 3.1955841090018855 20.748059768425183
5.901172348994422 3.1355992289846633 20.70735107945708
5.919861196922184 3.0788350457694573 20.660049103060263
5.930025396089823 3.032023594098902 20.619528351908468
5.946556867677803 3.108574825490468 20.689516241998838
5.925427304423414 3.16699412206311 20.735837710632243
5.927331504593354 3.2447151768514972 20.794486988507515
5.960237024778499 3.1985139399861695 20.771430372662827
5.988483900213202 3.2719534458320028 20.84235576721198
5.997608793707931 3.196000966345962 20.790060794143084
6.012524735491413 3.255212329611992 20.855858903853267
6.008288207806581 3.199362900385988 20.82340131090577
6.033659421155981 3.2452033352293173 20.883857268522203
6.028120210185049 3.1749101676347986 20.837160365569645
6.045776966234012 3.1846401041503656 20.88622623782597
6.051654111714333 3.151793196522678 20.889558587334765
6.060432433052666 3.1320692009993003 20.935995122973143
6.052989425581426 3.078082135109974 20.839380973724772
6.062504981022249 3.0496938405380196 20.892665879506534
6.078924652921321 2.978915153750647 20.82150167340411
6.089829297573802 2.9948180753715796 20.92156307181857
6.086941496695543 2.9163592553336244 20.847459667291925
6.107777840949664 2.8465461339002003 20.87459483562453
6.090811234829101 2.8549867267802185 20.791701449321195
6.100558018592087 2.816959672837449 20.795782842786142
6.099480434556346 2.7919170358747265 20.769486865594384
6.10609249440868 2.7572650146637985 20.774045242373177
6.087700183089876 2.7400582658971437 20.71787034872149
6.086709223237946 2.7286615192241195 20.670410646066536
6.0954356775635326 2.6892528704178194 20.63678499166646
6.132710313037093 2.6349442991894936 20.71040893432587
6.113004835597588 2.623655008559691 20.63723107492889
6.1506938531658495 2.5703098109485936 20.717580077325948
6.143457564791506 2.552277111460791 20.644394304563775
6.179678731517358 2.4683418904128427 20.664726273857877
6.125874514786391 2.5258068469884254 20.576257774347376
6.185961815320704 2.4391160020954707 20.59832317839839
6.12574150110253 2.504044055629368 20.504191112369767
6.1564622699906 2.435118837714083 20.459075077193667
6.115332737567327 2.53377015519934 20.424235249618878
6.126406834106893 2.4757738575040387 20.38816802783424
6.104513037973467 2.5277741999584222 20.330216980753423
6.1616578658335985 2.439465480410682 20.337140308908364
6.115345919977555 2.5038936205346713 20.264823344440714
6.140364125209251 2.4513318729396696 20.20093218728012
6.094937826128525 2.5428519119419333 20.20047424809965
6.103567866915247 2.5034025827208795 20.14395875860345
6.066462055092025 2.581335368959455 20.155420248454554
6.074667097730384 2.548958873239955 20.095399849448324
6.03096048355866 2.6100639015374383 20.111028234967545
6.053017375019726 2.5849387715020447 20.044764838229543
6.0270100582930155 2.6438801637139875 20.05626891575031
6.022893842473328 2.6573557885056447 19.98910455659662
5.995030609711085 2.6904783728150763 20.061585049856976
5.961914175398757 2.7201192366192544 20.136874160900103
5.9480928420541535 2.713706093819038 20.061695058121455
5.947382183549374 2.6924945758967933 19.98678527965537
5.969883416728614 2.6818996515594105 19.90931592157114
5.96417207195641 2.676549905666694 19.837703310871284
5.97765213089507 2.655900054049667 19.771673487567412
6.026971884232408 2.613695743512152 19.699846008225226
6.069133709679342 2.5952421812055757 19.6333698233471
6.107250495283347 2.5969363852790948 19.50377740552755
6.124087810907126 2.6032198030090115 19.437762457553564
6.132320141660875 2.6140894414263207 19.33901901583153
6.08145261254114 2.6251428012290816 19.290371557787598
6.062664220410076 2.6197945983880047 19.214208956311662
6.084671382617666 2.5910092447826036 19.09889038318537
6.105530067718879 2.587323004708893 19.03065122403483
6.131137626491684 2.5898794161323293 18.965763937361757
6.156900231496278 2.607785704856238 18.88632381807486
6.176149937234969 2.6188462450606402 18.83621618873762
6.2133041143731464 2.626468980731633 18.76163507716799
6.251343055157298 2.625695568403731 18.703309832427838
6.286165221236116 2.624692373436237 18.653019456563847
6.318063921761594 2.627747836438424 18.60324665255831
6.3729416766917755 2.6285599414312344 18.52645958689231
6.432071662759226 2.620874829444374 18.456271525129523
6.490118897130413 2.6150022523095515 18.387002212150794
6.5488797765594615 2.6090680485949838 18.318955044999427
6.613536830305913 2.6101456616506638 18.23778284481156
6.655050292394874 2.6074607691214724 18.188860501172815
6.701768124067842 2.600730114167565 18.140658865387444
6.762596299332083 2.5925266262858324 18.07655485327517
6.828860845549306 2.578687616346066 18.01275453131754
6.873423782410368 2.5872831116609487 17.953669914953583
6.928402783266003 2.5903402750782973 17.890459526448655
6.971254169052758 2.593868276842668 17.840721131991142
7.018051540555026 2.609878428604987 17.777677602942205
7.06148082106869 2.622565340092884 17.72296263763904
7.129660629812408 2.641422256205189 17.64072069648274
7.198705897801647 2.6755398196166085 17.551125321987428
7.28744962991121 2.6779246186739023 17.450859864516502
7.324954666817506 2.6612255541768817 17.415266568120725
7.408825823532018 2.633492836966984 17.369484615318015
7.477802620347651 2.6048204654352776 17.338075464486614
7.525670375218803 2.5795113364152242 17.346920643773185
7.567568186741484 2.5486191874113064 17.32899498827302
7.613841803024558 2.5447901345831254 17.29748967704573
7.678652109111317 2.544263680992046 17.252542031395745
7.7230877944106435 2.5828377110066048 17.231524072054878
7.753306069363637 2.6305447103481847 17.19480152566267
7.78275420296667 2.634766810913918 17.153104821439094
7.836036495039652 2.6600549047728643 17.102224389850015
7.892191383807154 2.689773715628845 17.054793551384694
7.94624282629483 2.6943678290150666 17.002277450553205
8.028587062915944 2.700222684951824 16.963449855867303
8.090460002649438 2.6990178416415835 16.942128069656974
8.183002465360504 2.708964127207523 16.90610818644001
8.26654438598016 2.704850131783061 16.887904974492287
8.34711524574089 2.7155853203792395 16.86533144337375
8.460899776974935 2.7459914217681 16.830326929162812
8.553249190762648 2.742703073674664 16.82116944622726
8.620006223802688 2.740596275460584 16.816866702347454
8.69505463427483 2.7309151646478873 16.8183957137186
8.752939508953952 2.728855819977842 16.817805306855426
8.816871918120155 2.735494013637 16.81265533538115
8.902788966266789 2.7374075016354946 16.812185638269955
8.965438006256539 2.742696730915132 16.811575766229893
9.033755025142375 2.752422265923747 16.809768984809637
9.14475175935978 2.753974657374846 16.819888386237164
9.225573983802606 2.742897640677618 16.835172263297377
9.2823987305809 2.72577117308459 16.8530547201424
9.329077152658742 2.7077092678779815 16.870600207257
9.380390317274978 2.6967109604627906 16.886993045748888
9.467105910700942 2.660790263480716 16.926947268427195
9.522882334032355 2.649025761500563 16.94905929137235
9.605317690797223 2.652181432345166 16.975748443375064
9.678429467435516 2.6499303696067273 17.007185936395395
9.74207864480258 2.641734021524684 17.04457664571011
9.802548656813586 2.630938792363102 17.088411725022304
9.859541755660233 2.646056604875273 17.121469413267594
9.927270277088487 2.669627192371155 17.160961871655672
9.9668411762673 2.697576093775664 17.17849799582262
10.01959408109432 2.715831440009053 17.220497579874976
10.06500508294536 2.7639641753600075 17.239317112381222
10.101309443243311 2.817909040751248 17.24641397815829
10.13436629106589 2.8620567272173436 17.260311028089006
10.183990450437145 2.934223414603033 17.279294816994422
10.23287204438686 2.9876567931981137 17.319022961117323
10.265078938303821 3.039080231635091 17.337137388373804
10.297833043376128 3.0849606647010526 17.357474322110694
10.34081001232604 3.1415336775933516 17.394275396293178
10.38971634086496 3.197753191034661 17.4466561237039
10.429375393914038 3.258756456441629 17.48699997245087
10.46585857729549 3.301186022502116 17.531345988125697
10.49832254844076 3.345077653613285 17.57212016689879
10.529522058847308 3.391154997291517 17.611956623560346
10.559815306950723 3.4302093707173817 17.65594716525208
10.598058529923042 3.484501308661134 17.714425328868916
10.634559051620672 3.5349832748084262 17.77962482611647
10.669034280535213 3.5894283598152557 17.84930833805798
10.701837781779423 3.6493940794493773 17.92388907022914
10.732765476905447 3.6997459025821247 18.010324721562124
10.749103245661713 3.7302024938884326 18.062793377102853
10.767584948044336 3.770325378115686 18.127665479602193
10.782655472010108 3.8186022760555467 18.176760242394135
10.792588789099794 3.8558878429173387 18.212934594473225
10.802719600260252 3.894437966356982 18.25349538222648
10.815727710500619 3.9453073294104435 18.310148945111038
10.827962227836236 3.9968694415755373 18.369688086565592
10.84073741258687 4.062320528236789 18.43454496636864
10.851366175633425 4.121820818808427 18.494144790637733
10.862611040472236 4.188525851934747 18.56357424163958
10.871283615479642 4.244522440090913 18.6158961344856
10.878183092451282 4.287860715002411 18.658959467015677
10.88787593404651 4.345156341528945 18.725924087045374
10.89379601760484 4.3834031249077245 18.76892773302245
10.899834831011274 4.421692184596337 18.81396335761621
10.905384516782144 4.474023708810664 18.850394991456312
10.91054157315248 4.525508114533967 18.88959474890166
10.916009466370804 4.574622915757866 18.932862463803882
10.921233180001876 4.6227635955932165 18.977447607901706
10.926512089068316 4.675135980297973 19.024607629930532
10.933348990458777 4.754455187790347 19.08592552498469
10.93731448457463 4.801513543103449 19.135520359282378
10.941150543863136 4.843356914944166 19.174062490813863
10.945267446045277 4.8951953442159475 19.236004921509146
10.949201515217693 4.955118238871031 19.291201141612504
10.951941610489515 5.008821806879919 19.338419317460712
10.955006699921897 5.07164395867442 19.384766475875857
10.957695657614343 5.152497818651561 19.449727513722138
10.959624617456816 5.219747573462404 19.509192392822058
10.960643813921939 5.28201723351134 19.55748168682687
10.961168234725067 5.358297319175909 19.614635912217903
10.960328882338073 5.436452420184601 19.68005185323706
10.959171733788923 5.504870793735316 19.734223931789362
10.955001201048832 5.564665029953936 19.790384461853225
10.951438901225844 5.612692309921618 19.834972004909023
10.946969420286061 5.659162886485539 19.87874007314225
10.938115947747663 5.73610880932001 19.947533283997057
10.923127570601993 5.806257100496105 20.03093300544962
10.912937045215456 5.841349056923745 20.077271274768272
10.902861214820716 5.882606463078076 20.119929360734474
10.890314335215846 5.932037326924007 20.16831911148073
10.875339722814813 5.988656260654812 20.22234123313654
10.857847488524017 6.041911985336627 20.27872123764446
10.824698477873012 6.111331055355744 20.37937515255725
10.796636531927378 6.15915394371883 20.46151721861614
10.768204587345698 6.224417672519875 20.529646562098634
10.73506970492731 6.281129820656823 20.60458399179071
10.715327326606571 6.309876857537885 20.649530074672434
10.695283899365565 6.330673969821861 20.697893247648693
10.649204234343534 6.400798929952647 20.778507004019
10.631779632853517 6.446406421519582 20.80086966840621
10.602190472072957 6.522267364090714 20.828693368821916
10.556049745542092 6.622721594650019 20.86957608306709
10.5266129480898 6.69977738734935 20.881296373200126
10.47776893400137 6.817610857322844 20.890707450151663
10.434300819920901 6.886993699856701 20.908817052172875
10.396564959660344 6.943907653515371 20.921879536777034
10.338377022509865 7.003897722733493 20.94774051567714
10.269995995142997 7.034309979137994 20.989813564874996
10.19026245400775 7.065255141925837 21.027115214352722
10.103271211965295 7.1002732217740725 21.05410332524251
10.018795852404713 7.112217427255084 21.087171096676872
9.928626862041925 7.105506208628092 21.130483691412987
9.853040037390295 7.1033371095720375 21.15979956862162
9.766251833315588 7.08107086385057 21.20481468960394
9.65762343533205 7.072680286769474 21.24314202645337
9.55451151969063 7.055019047387564 21.285192174519523
9.48714917766509 7.0433577474148805 21.31338020006751
9.426306888234679 7.029373917463963 21.34068704802995
9.360644673699321 7.010310561236487 21.374408361118892
9.308889748467463 6.999701806532363 21.399172555345892
9.205255762680538 6.974817943011365 21.450678055463477
9.130545023561693 6.96911056496525 21.4758425494286
9.057036722018571 6.944728328677578 21.515655797755745
8.992279983533285 6.936507841446923 21.540547057865595
8.951383427655474 6.918766901963885 21.56425020348663
8.892804985919897 6.915353608855973 21.5813617021986
8.824687789916174 6.910837694815869 21.600544171427448
8.751132596889116 6.895811733594709 21.62890253430665
8.6554683454898 6.88393478977495 21.659233486945173
8.575358511713718 6.847627330713776 21.706064257527053
8.514882430334415 6.818496418742311 21.742626526299482
8.472442410367622 6.799620868478773 21.767357611121547
8.360943260069673 6.780362395237368 21.801703068476595
8.29028002091057 6.768126689391407 21.824728110894203
8.198352264000095 6.765557472548586 21.838621955556974
8.14804189239649 6.767165284791206 21.844281111619647
8.082659130358694 6.774557479405279 21.846210901429505
8.006810614141633 6.781128591212642 21.850096679028198
7.926441155495974 6.810275676397235 21.832201262168116
7.862772890363756 6.80965057902275 21.843547515184337
7.779288552198279 6.820998671707077 21.83920746237825
7.702155812131446 6.791569596570623 21.868376807030764
7.547707613092053 6.721588804181366 21.928910001265777
7.473378609181529 6.696723580309639 21.94810661278421
7.430748606118209 6.674337694638151 21.964836644430836
7.382538873573788 6.6460953673044685 21.98503818763627
7.314361601508983 6.595448137408083 22.019454942647705
7.2533402382929015 6.553996308073402 22.045113756219923
7.210401548746658 6.497847876049102 22.08189461519183
7.159424754365931 6.440811184461689 22.114767344487557
7.116753031377767 6.38322619563456 22.146951672091667
7.054899216216226 6.274355253732016 22.204638944152283
7.010145968544753 6.211309436712242 22.231643826567453
6.957420086947634 6.143675902935799 22.255289210556032
6.920764186465659 6.1061042016421245 22.264662035133775
6.872796281889501 6.071841129186665 22.265511059779755
6.795127871906017 6.061170504595221 22.23568920105408
6.729675407666916 6.049330841853408 22.20948842715658
