557
17.811858812909392 3.671110598209377 1.966074978251497
17.747243069939625 3.6098328756894054 1.9193700549470605
17.65962017409045 3.5810925727784446 1.8735079412985294
17.585794822118228 3.5105701075981948 1.8261103561550418
17.530961075343097 3.4338082866435538 1.7885125403550393
17.451917934200985 3.393120382842252 1.7446572521817134
17.411047408998737 3.3332289902821897 1.7142610264030265
17.35073405621922 3.301478118502794 1.6780317557179552
17.284922936213007 3.2999516263432764 1.6340367106732772
17.233956042815368 3.3037951924061795 1.5955501552761997
17.194902180801975 3.29597157773868 1.5629149244993017
17.126088532679997 3.322810231382266 1.4909789781083576
17.07044300073615 3.3266369742605617 1.4231861257099196
17.038594982804643 3.3507938969446864 1.3725628640851153
16.989059015079437 3.3843137071071734 1.2796951691337615
16.961452857628256 3.3986733207250666 1.2265184017582387
16.928898548407535 3.4180837290145702 1.1555972256291467
16.903920222914525 3.4286418472080396 1.1032567149613604
16.878349461019866 3.42977278017972 1.0503526217980474
16.843550986299768 3.425315768611856 0.980190859245996
16.81373270496145 3.4207274545664075 0.9210893539991867
16.76957831093287 3.4068279014108134 0.8274412925760473
16.739328783884144 3.4066681760879294 0.7577351476915539
16.7146931549694 3.4101627290120406 0.6966359430509512
16.682812913931414 3.405481908694599 0.6209183083223975
16.649974988766854 3.3967546912063886 0.5401427129701073
16.62419534570005 3.387738929800803 0.47712697260666115
16.592569220609793 3.3777779166235233 0.3957367209173275
16.55771656953245 3.36716734818504 0.29826132911666425
16.53155432415055 3.361521492133754 0.21797508176530078
16.50960830724794 3.3588358535094254 0.14546166536035798
16.490037287533163 3.3550766161080063 0.07551987413489325
16.46954119195644 3.347717529923221 0.0033173244968112137
16.457610560782303 3.3468631250090777 -0.05002236382403735
16.439814582467918 3.3446399253224834 -0.13446844062804608
16.426557353824293 3.341202636862455 -0.20419097882924042
16.413925706689586 3.3324459156131763 -0.2729653884648906
16.40208974688702 3.321686031655654 -0.34391892376049915
16.39433528197341 3.3152414507935006 -0.40890356498058944
16.38723360878385 3.304112525928387 -0.4756912856745643
16.382250278827126 3.2924163449391406 -0.5414302134090452
16.380558617854927 3.284284476591051 -0.6008708643709042
16.379974235290998 3.2766567355233693 -0.6615862084354789
16.382702945540057 3.275229541815171 -0.7302195621531271
16.38552794620198 3.2718175932493248 -0.7938443332552119
16.388175777350618 3.2630429464330217 -0.8563621651063063
16.390316279032064 3.254214157337059 -0.910537089357387
16.39688317713278 3.2474412940332806 -0.9822146135497096
16.403096253050105 3.2403705517176933 -1.0454701585318498
16.41080110040624 3.233677404994234 -1.108958852890131
16.423245097345383 3.225174479993981 -1.1938308267959383
16.437671947270307 3.220155552952799 -1.2724658338245438
16.451137174696864 3.21287087702785 -1.3414223537372507
16.464608399666997 3.2030456112673873 -1.406666509789964
16.480576863338214 3.191858632072401 -1.4766448742428377
16.494864844686166 3.184792851344022 -1.5347201745415742
16.516276246253483 3.1747169569827234 -1.6102939895212682
16.530665789388042 3.1680825644212263 -1.6584147699272158
16.555026651788562 3.156999935052201 -1.733826180152545
16.57782273203717 3.148763975652937 -1.798158240817163
16.60184978422691 3.1406054564691894 -1.8626570884703362
16.627368590238564 3.130905947893163 -1.9270866505073507
16.64508398353049 3.1235966308951886 -1.9716435562975128
16.675254422096973 3.110320167755523 -2.0413804556527313
16.699557465328482 3.09284330910069 -2.1019448390219724
16.728382057834644 3.0715433517610364 -2.169898451923921
16.763330474800547 3.0519114011363775 -2.2434534770264563
16.789435064765232 3.0363330652984866 -2.298569015858916
16.82240759980181 3.0073644991675437 -2.3671922194902946
16.866745248279578 2.975268144828655 -2.4541614451057314
16.908436687089495 2.921646966371894 -2.5455686707831613
16.959514270677087 2.900602071918961 -2.626020249520761
17.006730256351076 2.871077957356383 -2.7008455111710403
17.03834221006817 2.868834713878921 -2.742075713553991
17.078653933198684 2.863970440861588 -2.794018831069361
17.118291255702903 2.8621987514295935 -2.8423706589873534
17.149684421773028 2.8558052082416814 -2.882448636825369
17.212809965670107 2.854468923224444 -2.9546679701270757
17.2650316188232 2.846488936682345 -3.0174365565615164
17.311323358622676 2.829110788023995 -3.0718281779713474
17.364750873081324 2.81706144306106 -3.1322461269528725
17.423360444695657 2.8260554027444442 -3.192643084762061
17.46871058586607 2.8190592546776916 -3.2414432170205663
17.50566319261148 2.807593558072441 -3.2795684025638807
17.55326438482955 2.808310884523812 -3.3279385418639276
17.596315465140524 2.8132532753940107 -3.3701300411250177
17.64096970024535 2.79241347163984 -3.4155793121052387
17.67886336754401 2.7784086317513794 -3.452134895457006
17.73063792193579 2.7761938196124625 -3.5023471191980144
17.772572023991035 2.8008189505097585 -3.5441159796743933
17.829813892812016 2.7825298424340312 -3.5956543652765904
17.882136955634536 2.7847410467791027 -3.6460261543833745
17.95107208817911 2.8041050206907197 -3.7084474476890743
18.009563223507147 2.84330457519075 -3.76772877625619
18.06858514270112 2.8599629852146706 -3.819937195804913
18.111795583852857 2.874821029017716 -3.8611599047622036
18.155891353375573 2.8800634755476078 -3.9012041851405117
18.21902211120176 2.8577643593884523 -3.953079561010104
18.260245655401356 2.843860750921329 -3.9865792739948738
18.325061680718065 2.826560871920716 -4.038644339920488
18.381504766242244 2.813600485899392 -4.084245540810955
18.432484598616597 2.8104971207573253 -4.125723984292655
18.48698369288411 2.8096678450434416 -4.1698561936834935
18.574037877090593 2.809424608045776 -4.2402881656739435
18.62708348891276 2.844977374961207 -4.291584287285174
18.66411471389311 2.8703771635634063 -4.328180791406286
18.72022373757074 2.906427859984154 -4.383473340870575
18.770127090030474 2.925426652928205 -4.428935080407791
18.816089949611214 2.9407162985891113 -4.470180112297144
18.94225646307339 2.948185323750149 -4.571584865262755
19.017595044271218 2.9389452185465195 -4.627795405069849
19.096794927468164 2.9453053611315134 -4.686225863460044
19.16600277014561 2.9270216300090457 -4.731869200229168
19.215000921787787 2.9162992336941262 -4.761460760355775
19.264356964607526 2.905495169802602 -4.7899916296075045
19.317785077947114 2.8846984597020464 -4.81495440275174
19.366689649801952 2.8613475055880233 -4.834131597046843
19.43733286950414 2.829330193271284 -4.860123236657735
19.50776431518258 2.8215097236214435 -4.894839257307835
19.577401685036993 2.804750142416496 -4.92255468174307
19.676111255203928 2.787065141479442 -4.961685602405235
19.7572959815244 2.7812331351175574 -4.995912740311992
19.81692838518436 2.7801387926993737 -5.021886796882049
19.8669657943297 2.777739631835136 -5.040620059118071
19.92213821480748 2.765339394774333 -5.057941171031164
19.972180146211112 2.754440835099165 -5.071907533645995
20.02120801905791 2.745184447606449 -5.08589153212346
20.069737122862566 2.736252378763928 -5.099415886867953
20.141389102840343 2.7236306921658144 -5.118168029661772
20.20536105614588 2.7127764027845265 -5.13491711020964
20.27931160446936 2.7020463571594284 -5.154823136314214
20.344958011958234 2.6938445083031857 -5.171147482475655
20.40857884186093 2.685730705453812 -5.187305891607872
20.470609554602877 2.6774865282934144 -5.202806513466079
20.531034116282207 2.668817779194788 -5.216981159645038
20.596958560011814 2.6605053768150273 -5.232875237334944
20.675754926446256 2.655933893781979 -5.256801868274472
20.730725573558107 2.6700282714812547 -5.2843886533055295
20.807899966054084 2.694237368145666 -5.33166645792817
20.835586428219706 2.7370536616199868 -5.3807541546777085
20.864779426659926 2.763219141133928 -5.414794982042697
20.918234399651915 2.803903337479755 -5.4728468819336324
20.918597574641634 2.8896447114078967 -5.524198161887134
20.957082110614266 2.938061331868389 -5.58189928633434
21.02553106271912 2.9689505499563715 -5.647318275413851
21.065609721872242 2.9885335152958348 -5.691380622503829
21.12304312559682 3.0081685594815863 -5.74709874330344
21.163778783734998 3.013095804027009 -5.778264676003954
21.23002452574658 3.0160177930623027 -5.8230388071623755
21.263266137473728 3.0348735324513605 -5.859136561883661
21.32308066520544 3.050547528763951 -5.907231977052434
21.37966958564976 3.0571165977296633 -5.940819038381701
21.43802023439213 3.0726138430766494 -5.979824878974301
21.490620530455377 3.0785564889671226 -6.004959213583053
21.56802792994749 3.0926314717496317 -6.036021905934261
21.604609439569664 3.103123990176278 -6.049636559018893
21.658926791581127 3.114855676887341 -6.067280280621864
21.751945580942756 3.1326097620516293 -6.0965950615005156
21.83764054967137 3.163260372225572 -6.129705258581539
21.9154731460752 3.192731273576518 -6.155984651546378
21.975131980011934 3.234829708209742 -6.180919642780077
22.02685943666961 3.273320075898215 -6.198390885420087
22.111207593301753 3.3303033366874315 -6.214930161284973
22.189165398802178 3.3636891081619282 -6.212137516858524
22.24006151944935 3.3833856796882165 -6.206407608363592
22.34252571729828 3.413744234358258 -6.185804520199772
22.434450453386933 3.4688440396003832 -6.168289074012863
22.494356189861726 3.520935041416118 -6.158141520499269
22.533471007747814 3.5547512433189903 -6.149259207479455
22.57405838530502 3.589018628668513 -6.138621026534687
22.632271516258303 3.6380883419762005 -6.122055030156531
22.66880672875243 3.6735414838355633 -6.111344649860818
22.710900178720976 3.717174365006268 -6.098114144737527
22.781020134611822 3.790641957364766 -6.075962592899191
22.851741574127242 3.844432654972988 -6.05039114358366
22.904383836646236 3.8832591398753813 -6.031141631026289
22.98537922560803 3.9373818470658613 -6.000697315630207
23.067512473898823 3.971090364080707 -5.96932690985178
23.119457229983578 4.010127303629203 -5.949835797746996
23.17673936217664 4.071942351102587 -5.929052403917101
23.211545241583547 4.123384585557004 -5.916261945382292
23.2388876890933 4.164269422207687 -5.906165333466537
23.26591057320906 4.20910010146789 -5.89496670742881
23.294475816628676 4.250383401293772 -5.884885869194638
23.32660722057238 4.296548609112955 -5.871311083276966
23.359514711574207 4.345924616184735 -5.857636431225262
23.423112297714404 4.427134712500693 -5.831016006453442
23.46890777303324 4.495496176300422 -5.810404130910378
23.523745418386888 4.57065974998855 -5.7875200460429665
23.57811082075019 4.613228793429714 -5.764637990862755
23.63683005854653 4.658203307933844 -5.740886047408083
23.69880264441856 4.713322126485241 -5.7155439498701455
23.78103039145225 4.777163376128909 -5.681127603851806
23.857967302924706 4.8384372699619504 -5.647803798700384
23.91064310707052 4.914432534639502 -5.619111203316697
23.967404222438507 4.998416569632498 -5.587829062294274
24.00936401619891 5.043488323763769 -5.567841422192583
24.08153607348673 5.1011373407320795 -5.536169982349323
24.14271164962426 5.133949952481901 -5.5120768434106795
24.259705689878615 5.20193644343666 -5.464827583947627
24.313626297823056 5.226640218450413 -5.443188524532325
24.38345792590382 5.246431185875591 -5.417267187274985
24.456325519977614 5.261904050433644 -5.391082164655872
24.5037843276727 5.263712965449825 -5.373849418029959
24.56080460411129 5.240139008770522 -5.355294104768786
24.6059110959256 5.217494075150246 -5.341373740828091
24.64329381588499 5.198726545046778 -5.32983700665716
24.740403750864903 5.1659803791907954 -5.296454067939225
24.793008895235033 5.155165067168768 -5.278279469938626
24.844290484720215 5.144641218699924 -5.259231807352668
24.90804486818102 5.131729480418802 -5.2348458864185625
24.97048977232808 5.129659868841589 -5.209592863003831
25.024351566049184 5.131136458474783 -5.186544468385664
25.103981275397537 5.129773627555039 -5.152007142717432
25.167072021483843 5.130325534143588 -5.12421359981361
25.24110945828941 5.130676521794798 -5.089073491225989
25.31083763749428 5.135252552424561 -5.054523456436955
25.37362525831901 5.139459068040812 -5.02233411073281
25.418437771879205 5.145567159709173 -4.9979082105213415
25.471044989682937 5.153677604693413 -4.968844023958387
25.521000777469897 5.159610409096667 -4.939347147025677
25.57464310024974 5.164481505373326 -4.907266731553692
25.630993430498226 5.167834550589699 -4.871344513548323
25.700452255215943 5.1682137779543025 -4.824130642043814
25.741399622741397 5.159685524674014 -4.795515245671831
25.794637491874596 5.147417464097121 -4.756220045585367
25.843098446280887 5.136538309108346 -4.719124877199713
25.894255067627583 5.124033539914204 -4.67718969536471
25.94584569461217 5.110921799479666 -4.633944920924126
25.986358099501842 5.104902021438672 -4.598217903235693
26.04381814251915 5.094966900014971 -4.547255023127739
26.10899270678918 5.058157182495314 -4.488004760729011
26.155504671338228 5.034308887556134 -4.444837526164101
26.198630366103597 5.015936006439292 -4.404816714212268
26.24935045402161 4.983061542952545 -4.356573357138682
26.28443355750393 4.9613658495409965 -4.322945765893687
26.344903368596338 4.930493511514643 -4.265840413731082
26.4001066932329 4.913321927806305 -4.214975366868141
26.439882815703566 4.908583067604588 -4.180428775103521
26.499479448310364 4.892545800463391 -4.1278462831369644
26.5514234049877 4.8514000451846115 -4.0757689821812715
26.62076887644829 4.845248408773914 -4.019309425347451
26.66608087266905 4.844099189692985 -3.9837497152650743
26.770373148983605 4.878204002068322 -3.9121275503367343
26.8649408583708 4.938508275942416 -3.8518418718701417
26.902331983722455 4.9797741816945535 -3.8333128707393116
26.940820866818555 5.0261004977786925 -3.814398918162694
26.98790693335038 5.05253721038336 -3.784839564236103
27.03614697632434 5.0776924731265 -3.7563062067161863
27.097838973199163 5.125420919587811 -3.7208431495872896
27.16030163471505 5.171291871301671 -3.686528286371943
27.23250460995164 5.181115390857381 -3.6381501162774055
27.313550878097022 5.21311987433044 -3.587364325124251
27.361494487623652 5.207557602929019 -3.555494964300842
27.429884953149934 5.2366947733275655 -3.5127266037014193
27.48999327877935 5.247478936708712 -3.47455579665459
27.575129426787747 5.235519226997538 -3.418171264906035
27.639181394259584 5.260943971659526 -3.3744945316287156
27.693378687511732 5.283263561516574 -3.338680229056262
27.74757875733824 5.302455320399507 -3.301579670183827
27.793780386990555 5.316771114543849 -3.268042576650285
27.860357146519707 5.315663903026906 -3.221708494568947
27.940502624057906 5.311639001273674 -3.1622883040153194
27.997242541525264 5.302733507334455 -3.1187382680216587
28.086101733822215 5.30828406094688 -3.04945694951844
28.16577401665259 5.327085638385461 -2.9846937719153668
28.220326780201866 5.33767547290463 -2.9389451123487955
28.28857137115833 5.353847253858325 -2.8790097928318867
28.352386061039148 5.381250255843657 -2.820221661934473
28.408280459325283 5.389386381049523 -2.765895224139158
28.458882352136552 5.393316182864639 -2.7161189278122584
28.50481622097222 5.398586552611081 -2.6693199482549956
28.562761914935432 5.422103367588754 -2.607570458444335
28.602066790688887 5.441249163820604 -2.5647646843080523
28.657277981963492 5.457908493302024 -2.5025028866833363
28.70547589286478 5.497222809076585 -2.447041654339145
28.736887822693983 5.5444155440006515 -2.4106179932899146
28.779820826251946 5.593082116958276 -2.3600057491276076
28.816813198243146 5.655218869726755 -2.3151608165749598
28.84004352796013 5.71384469693324 -2.2905048455228596
28.864737286395005 5.7942358146324935 -2.2640845141337076
28.88483696216594 5.846717443438241 -2.241968222460309
28.918727930807723 5.9209283203189 -2.2042490137511206
28.952766982293863 5.96890957807457 -2.163338454049283
28.989753720967755 6.0173327408365225 -2.119262766651273
29.03914354548288 6.070085873570184 -2.054664351565732
29.09455133922904 6.131152750026628 -1.9811869371849455
29.125296237012357 6.166255977664142 -1.93872276735924
29.150400247600995 6.214388721821991 -1.906939192700654
29.178221471348508 6.258737762239832 -1.8699466479625224
29.20784263271924 6.308974661418895 -1.8309484196654189
29.2351551274228 6.363656727150963 -1.7962523897527052
29.26382798387006 6.424291404542677 -1.7626794716323015
29.28779087600017 6.471196813468796 -1.7273566884667593
29.311841052014376 6.51732129488435 -1.694544352710769
29.339292208826834 6.569462362031383 -1.6571172917962185
29.388637085779163 6.653281164205019 -1.5821899412266127
29.421409078483215 6.713604387529167 -1.53036201559037
29.446089030777813 6.760009149981642 -1.4888963373421729
29.47550054818132 6.817971378916119 -1.4367633919033749
29.48943734139507 6.852051425666839 -1.4112989151586164
29.51275209841802 6.904295069871065 -1.3612586631441705
29.5357735022727 6.960424150014997 -1.3003230184444325
29.550606599784924 6.98527983090145 -1.2436232742968758
29.55938705165506 7.0221432225750355 -1.1841776159516202
29.557624420603474 7.064788476774562 -1.1108221830670895
29.54960587715276 7.093164266321407 -1.0470339191421245
29.536887250147945 7.116650375619256 -0.9841275066616604
29.52469401470146 7.135567098030298 -0.9315534077738272
29.50968259861899 7.158904484907322 -0.8704388801937417
29.492689867893716 7.18681790481311 -0.8076980867473456
29.473617675688526 7.190698388930927 -0.7145065126924299
29.45982089957687 7.190151628748937 -0.6654730746324118
29.43118864219754 7.210711244109782 -0.5989060909605639
29.409749209688908 7.224661510655845 -0.5540935480685545
29.387293968838097 7.240595375435915 -0.5115921862573227
29.3505939316621 7.267935238784026 -0.4495889430750579
29.319069116809093 7.294809258324002 -0.40004863586578443
29.285300032969545 7.3229487629472345 -0.3489216545200975
29.25739127364222 7.335922321485762 -0.29763008077416186
29.22521719340692 7.342420672339014 -0.22982557782700352
29.205349283427147 7.328542333250195 -0.17595814434780666
29.189222384421036 7.31496084013571 -0.12950675107073328
29.16441040561636 7.299717759324744 -0.06048128359777216
29.137354150802423 7.289149109459094 0.010387664817368858
29.117358575720022 7.281504615720654 0.06521914073219914
29.076784031516226 7.252459834751674 0.18897742094364922
29.05654411094806 7.229557036147805 0.2658746308955573
29.04137570532123 7.213181529687453 0.322499970246124
29.01970374282754 7.188651959868855 0.4079259143222842
29.00266546030297 7.1754730159660385 0.47305514326614384
28.98871773506737 7.164441605625366 0.5275755935641127
28.976072731189824 7.154328241785014 0.5797545317814539
28.960544857224995 7.152145449036869 0.6422775871400659
28.93744271310745 7.150401952301772 0.7389256302990459
28.920063166493545 7.154525929206408 0.8106545423316809
28.899676141007063 7.1660934288381695 0.8947389543357853
28.88268372881383 7.183135278652526 0.9588332662597217
28.868482819019956 7.193635442939594 1.0234891823743344
28.860292658655943 7.191981920138719 1.0755216172652067
28.84443251210625 7.206050026813836 1.152836799813426
28.823763194452386 7.2318575589077705 1.2391727665608845
28.816058258778487 7.225774554700972 1.3145694057212323
28.80910815628877 7.242946606789389 1.3630562983800538
28.817851154627903 7.222433417413163 1.419542701173682
28.783604032527208 7.261032134500804 1.494975642712291
28.764829580523177 7.292322440862141 1.5766392762453463
28.743888931826774 7.327279479053307 1.672431733668121
28.726315919188973 7.356254008975413 1.7569072363066423
28.711765234162005 7.3846786584728825 1.8121128518186462
28.695531951657703 7.413574578439715 1.8806937461515925
28.68045668903529 7.445580238043112 1.9314978305671997
28.66491271156078 7.479181144705288 1.9743425031520423
28.649644068133934 7.513354068230528 2.008586648534323
28.633660412146355 7.548538326190061 2.0466756677824383
28.618202787308363 7.582044627785551 2.0846330473113146
28.599897855161007 7.622558763732836 2.1223051931193218
28.58342349266977 7.6581955151983445 2.1545072941310655
28.568655234584778 7.688518047029166 2.192942062107742
28.553854502194774 7.718346115306637 2.231171100811395
28.531331046978924 7.763019763988585 2.2872859414781073
28.503124110267958 7.817770666177631 2.363042576752959
28.47564611753953 7.867719115084285 2.4455349331692724
28.46291273666364 7.8873556719361755 2.505808641602496
28.45263150046791 7.9002380984553895 2.5535304371769727
28.425703822603495 7.948702416172623 2.6173825139812448
28.40383854048111 7.987766533417823 2.666239044904836
28.382645694243397 8.023875577198083 2.7138301601665584
28.364195627064955 8.054000698577756 2.75481412804818
28.333642424751098 8.102206091859319 2.810787175202179
28.312579329533847 8.133615521230201 2.8497210396585513
28.29197278816875 8.162583202785715 2.889080682415472
28.269814294458094 8.190853098585482 2.9303129530067262
28.24606561924339 8.2215799752455 2.976277811643055
28.21769784647083 8.255328078182043 3.0236267068507776
28.190491966134385 8.2892670541966 3.0713131359935795
28.164633350064577 8.322116658973869 3.116070265819253
28.12340740374595 8.373581886148013 3.181506727526607
28.091119017169284 8.411145780109347 3.240376611092523
28.042207168618457 8.466211017445623 3.3201329493767555
28.013893351591403 8.490727075763235 3.3788259437001362
27.981220928330828 8.512345120862003 3.4474451418318
27.94190146325176 8.525764527224558 3.5317616389732573
27.908607816087283 8.53314872706182 3.5950218728954897
27.87274162098859 8.536362486289772 3.6534582929177053
27.829613665955012 8.534985299626392 3.7157394139674396
27.78525965675111 8.528850011645083 3.7748710060551898
27.71797844154345 8.500332401367979 3.863507287294254
27.65356826853688 8.490503466183938 3.9207234340088397
27.61147855265351 8.480525845576555 3.9608092497458185
27.53787178688901 8.459893533717686 4.022063662793476
27.49084326178745 8.44728533645965 4.05988096514511
27.412256453971214 8.426064111229055 4.116964208109053
27.36141838860332 8.409443792525575 4.15492157697504
27.289166315424033 8.378948531939146 4.20637327236917
27.218082922618827 8.355046433652635 4.249626465272785
27.14161775172317 8.317872710085972 4.30038830543166
27.080194638434715 8.286709528148592 4.338336949134675
27.031803385747356 8.266370986254977 4.362454649283572
26.972761214653186 8.243562937205297 4.387039898098369
26.89931546534837 8.209570856209261 4.417170151479095
26.851042106426778 8.187372021418792 4.432933889188339
26.772264487904422 8.14914985493155 4.454847365628007
26.713612518727263 8.120172362336188 4.467052519356992
26.631053186343117 8.045192934058797 4.502950444767771
26.586617918732063 8.018893125819865 4.508672641394112
26.541213481653624 7.981186400155177 4.515884954917839
26.496117190939504 7.943733250191997 4.521398037440445
26.418807810150497 7.83879729543754 4.548793447074411
26.36889487577271 7.74353413069223 4.575725233135707
26.329311287814832 7.664407852323423 4.593064120885888
26.301658992593726 7.614206219693984 4.600282707051749
26.27383594653162 7.562599082936088 4.606956961450203
26.247845525944257 7.507440884318076 4.6152325543160515
26.221851639146884 7.4500371532309755 4.624080512087005
26.192928355381035 7.388138514999555 4.631447200077931
26.16338407954729 7.335303794877558 4.633153093008383
26.138384364206942 7.251863708105682 4.6512197735175675
26.102867199751202 7.149428512294313 4.668070092958411
26.07869300711999 7.099407546141854 4.67039573566333
26.047857573643977 7.042259283179432 4.672672259156272
25.999008694718647 6.955185731785645 4.673263883419088
25.934310631441207 6.871579815702417 4.66128375560996
25.894247238677977 6.785995576619846 4.670375129005457
25.85761861523463 6.708934785783086 4.6771280543639016
25.81278739891517 6.621924153885485 4.683012021296706
25.785515823084086 6.558722604408433 4.690699343843397
25.76714137171683 6.512070434890739 4.69722497109413
25.74066191538233 6.435120565268648 4.710233857527751
25.714109798972487 6.364722608340211 4.722118959301037
25.69528562024604 6.316768773113706 4.729858921623006
25.67145226539938 6.272491386841187 4.732597899090154
25.65460576775577 6.2080211335505355 4.747918569887037
25.625921436724465 6.165918964137035 4.749355855411132
25.61179621976486 6.107663787776385 4.7634934240239115
25.587065420697144 6.0358172181759695 4.776234565788414
25.542280354513093 5.972588638707638 4.7807134330335845
25.500238836692862 5.895992513132446 4.789459649037104
25.461793957192274 5.825931807244499 4.799948029190672
25.428079878451456 5.773866779798636 4.805309537951263
25.39351089487058 5.730409140987028 4.8082143839785765
25.353422118014265 5.696486984691838 4.806652912709778
25.26759203087072 5.616956327018586 4.807609743071154
25.218023000503205 5.578866568119686 4.806170394519006
25.179929234930878 5.54705057561033 4.806411395952816
25.149706009996674 5.521807709085476 4.806602023072697
25.119751650535584 5.480742626168114 4.811306281023805
25.073847380142684 5.455164387434099 4.808199933659692
25.03477358831289 5.416756248231506 4.811332955410707
24.96320663501118 5.385107332682091 4.802724590814279
24.912630855526682 5.357089667301912 4.800226670505946
24.85988446248546 5.329114268538218 4.797428583856442
24.77290408189333 5.3212344147172725 4.783099039450736
24.66910025853367 5.314345113563942 4.766245809565627
24.599894555280073 5.2881512352005 4.760838049621793
24.530101975264316 5.271173404446599 4.753723813111225
24.472301966708834 5.230581219700722 4.753275921538892
24.42255637385097 5.1811945821314564 4.755407906004502
24.36173929950641 5.129837147159935 4.755782645173795
24.297789358971603 5.049432721025683 4.759061897405074
24.247394777365287 4.962849218500873 4.762753713523134
24.16791964587383 4.905448942420346 4.757097302708694
24.09556963000682 4.859567170053217 4.749619289144402
24.01318315477738 4.79609590069524 4.740649127164247
23.897556672422187 4.749943693159112 4.723247510811213
23.82572318683747 4.73886048303323 4.711364863185995
23.770250274810167 4.736130897977837 4.701881918601666
23.706023936155717 4.7376006662191035 4.691123711796912
23.644082267527864 4.741422068804464 4.680553582051557
23.542070295613957 4.7445423095697254 4.66377700688699
23.486844941644495 4.744726051703513 4.654763935806736
23.422297464315587 4.7419338510335125 4.645599831962709
23.33413810294299 4.739785037048252 4.629606135234065
23.250652351235384 4.711409870574735 4.614402506450647
23.171441317175127 4.693757229383957 4.599737199871207
23.073655025413625 4.6683734515262 4.580455656914003
22.967591531737472 4.621101655933143 4.555631667164631
22.909126636355484 4.589621084936442 4.540084943326727
22.870459315731654 4.540737725446045 4.524172017238177
22.805131850176718 4.492561924776 4.501827424292211
22.755667884423936 4.459894440781175 4.483671043034732
22.717895848909194 4.42161323545092 4.466761623942796
22.666589277419217 4.369084156204648 4.442153124824097
22.617689580032824 4.337063936230727 4.42198110748552
22.557913749129725 4.306820007024512 4.398382642288533
22.476640716223653 4.27710834207444 4.367052584134052
22.395244240659704 4.266042894614643 4.339375180579248
22.33895456912123 4.258641537397157 4.318908069412336
22.295503513495856 4.236218589164631 4.298515802888961
22.242296833287547 4.225687086492364 4.278530606922171
22.18444961722483 4.1991305597194515 4.25050337676724
22.127945304206502 4.194386180306797 4.228158214646557
22.081938316799853 4.179507842020284 4.2064989588247155
22.024139029377928 4.157919441133977 4.179149086649522
21.962841501410768 4.140271303922349 4.150037774544906
21.892660840163966 4.095859646816174 4.11053046739368
21.82825892557173 4.064952949490752 4.0758887575104055
21.76974215513234 4.052745566823549 4.047479964624845
21.706219815227875 4.0250672163071615 4.014645376926648
21.61634053337299 4.015941157077268 3.970247302468732
21.56431979789069 4.000522897712706 3.942317754266941
21.50201930451924 3.97782819730759 3.9081862896540005
21.422482406031214 3.955589084523288 3.8650815812256494
21.354962753277213 3.949635458640564 3.831418044486606
21.30587317130047 3.922268070866509 3.800968224719085
21.228650384435085 3.892392146638797 3.756736346392579
21.158963077350432 3.8646075912728866 3.716588613968121
21.109560835814854 3.835772445987377 3.686563993055516
21.06558615678232 3.8195566577523024 3.661259233217286
21.003280694368076 3.8014249256090924 3.6265202000630494
20.94337714786591 3.7802958779487046 3.5933785728614214
20.870098111596377 3.748602735954025 3.5499900976629504
20.774892008045697 3.741336127533804 3.499832187732944
20.691898367833716 3.7305301106598003 3.4552143413845404
20.635339271796898 3.7223778902711047 3.4229952196422473
20.584001877000873 3.7160815742976645 3.3981514038535665
20.482381372801516 3.700642826227955 3.345592838234373
20.40205353466145 3.6824386116232004 3.3048404481095184
20.319556356027807 3.6782741031352333 3.2651098585437786
20.23859176612411 3.683655024719215 3.2277952551882962
20.172058525388472 3.6873460292152838 3.195897708047211
20.107691732686988 3.690590619712886 3.166074951393432
20.059238713249773 3.692857275289083 3.14381820306796
19.983130648823586 3.7035038089875925 3.109413266774434
19.910043448813866 3.707775167259662 3.0764450723004386
19.840953827026183 3.705766194524128 3.045739097036582
19.79410283412236 3.7022188137380923 3.025774557130674
19.692928263871217 3.643837956010016 2.983502497696643
19.636361074372136 3.6311582758711487 2.9601524587608776
19.585083468932275 3.642222662335926 2.9394266836126532
19.538738268264467 3.653141871371414 2.9196900559912238
19.49040124885963 3.6630594588558623 2.899558237512674
19.44375133814884 3.6668255065662527 2.8795615279942175
19.393657124420177 3.6541395621663613 2.8597875231166863
19.341323602908865 3.647777535372029 2.838115634803273
19.25676321657551 3.6627377103080874 2.800436690782693
19.203986398466842 3.695202615281819 2.77495776475136
19.146083159937636 3.7261804276012023 2.744717927012607
19.116548105564103 3.763268209870602 2.726029257101891
19.071485147904603 3.7943650895239833 2.70077720142563
19.003534359017557 3.8171504933834792 2.6645394461250924
18.948721889615296 3.8320412750952166 2.636581269423344
18.862069142636795 3.8614740135891683 2.593472293707942
18.773691173581724 3.856107049430906 2.548939319168292
18.72105674722632 3.8511123490155685 2.522700539690408
18.643858461494702 3.8379292966203105 2.481779482079839
18.583256195415625 3.834720398375863 2.449649366580633
18.53803618712967 3.8394820667947833 2.426157397951948
18.454072360561153 3.8374628531252526 2.380718214795246
18.38623253176746 3.825812762465367 2.3428044099917957
18.26212430616234 3.8311895683558364 2.274093429816858
18.16583077984348 3.817730577229993 2.2164741789205116
18.08148690656107 3.804884791177155 2.1641246621518593
18.037319723148308 3.787160538688779 2.1336341465953343
17.985619775757186 3.7573443734941314 2.0908715217204095
17.937832457836233 3.7331687170824983 2.0528310764303437
17.87189070127808 3.7076885203686496 2.0078283969711257
