398
0.42907429059768076 -12.407471310274776 -7.3455392880643915
0.3795789450960476 -12.419070131079685 -7.378163130663512
0.2887382190290919 -12.403913444842354 -7.436808389205244
0.2258010391227807 -12.376914184056348 -7.475214180472453
0.16250628633739517 -12.345905528942263 -7.510200086886033
0.08801192861959306 -12.309335432359333 -7.54694318365562
0.02037116355709445 -12.275750754173734 -7.57692695833997
-0.08562457724239847 -12.210097781591609 -7.623135760435868
-0.16006751383694517 -12.168309519118349 -7.654366106087685
-0.21705716587848212 -12.124788262242829 -7.680199751621196
-0.27779391390921737 -12.086813615701082 -7.706722176754426
-0.3280352208594117 -12.061327952445476 -7.728127525011728
-0.38740142446270576 -12.03465744041118 -7.755576773866454
-0.4406400272736437 -12.014866094881315 -7.780926061378078
-0.5014720645561246 -11.987717892965101 -7.814969779755304
-0.5513948170567937 -11.954281502538775 -7.847945409409504
-0.5966910506029723 -11.92529193892976 -7.882114681130665
-0.6706971855714878 -11.880542581930632 -7.94523589742277
-0.7053748039131633 -11.850141868154505 -7.982572472014277
-0.7417593659081643 -11.833534633604081 -8.01966737846259
-0.7929819384386032 -11.809599808135188 -8.074311029865793
-0.8597292507711569 -11.784871861075215 -8.150900444186782
-0.8985271500848953 -11.773359694776534 -8.196856905950217
-0.9342715811933038 -11.771613670927994 -8.236015365055955
-0.9804658667617294 -11.769303064151465 -8.287120700432457
-1.0161304911835347 -11.754030306638274 -8.331135963391137
-1.0745253461191495 -11.717561801875297 -8.4033858881061
-1.107260581427739 -11.680785815965823 -8.44649645663311
-1.1423023333565538 -11.6431872608911 -8.489353557622888
-1.221853992746317 -11.602928688559846 -8.563619126234283
-1.3241872453889432 -11.563853844544159 -8.641535218492692
-1.3849107440153285 -11.555733668265386 -8.678279596186695
-1.465228360995867 -11.534743259107069 -8.721811574868646
-1.5491032521799728 -11.527698958277742 -8.758414106312994
-1.6142209977444615 -11.540199486606355 -8.780704227637315
-1.6761053661788536 -11.54591732152875 -8.800559950294346
-1.7456404178937612 -11.530360039095076 -8.826121649093107
-1.8297001282757752 -11.511330893725566 -8.854718642601892
-1.888277423964745 -11.49166903914791 -8.874013271931378
-1.947442721878975 -11.473305839404844 -8.891505670597784
-2.0194058991272246 -11.460402488392148 -8.91290374340566
-2.0726658050323814 -11.452116576436232 -8.928322545897853
-2.159617872321112 -11.458164761576962 -8.94623708358635
-2.226174323323293 -11.463743648531482 -8.962127203122563
-2.318761791578394 -11.468922977039671 -8.98255017041459
-2.442596555679251 -11.46595227506322 -9.009778919044255
-2.499541251778747 -11.44886734028081 -9.023128622415978
-2.5489466092800726 -11.432363770210383 -9.03482816258046
-2.5987080427797133 -11.409917141481944 -9.04665630118945
-2.6488332726295543 -11.380198393270147 -9.058869901584512
-2.72818016329482 -11.301810642465394 -9.079906594763496
-2.8007463798627823 -11.284804126449487 -9.095128668084929
-2.87494266927677 -11.247954897300982 -9.110142451596086
-2.94043974568205 -11.228506854292192 -9.123057459380234
-3.0199744479095516 -11.237943997389618 -9.136228254348026
-3.0851200570026807 -11.244994922924805 -9.146451245314076
-3.170718582080429 -11.267393464971727 -9.161709346801764
-3.243505351118986 -11.294881696486932 -9.172035007884329
-3.2976591882280193 -11.309559075258994 -9.180352485277723
-3.3639493825995768 -11.327803454398119 -9.191005709872982
-3.4602054606615047 -11.349798986527972 -9.20732286988829
-3.5530877783674297 -11.356846780180046 -9.222713443438312
-3.6053587630978026 -11.36554973496166 -9.231656519603561
-3.697091333082084 -11.368387986059789 -9.249634231017335
-3.7553347582168053 -11.360292546882285 -9.259116875297746
-3.820440362389051 -11.35188520111355 -9.271490955900077
-3.9086746851452494 -11.33920558810643 -9.28776373926063
-3.993662413051534 -11.363597652071778 -9.302466744786344
-4.072946390626526 -11.376537590477817 -9.314677285036591
-4.1551205816345265 -11.388521351915452 -9.324635835023436
-4.247278894712566 -11.403209361947958 -9.329215382336876
-4.3006124340650524 -11.408776835293068 -9.328346857725151
-4.382072431425657 -11.414984401137813 -9.322696165050715
-4.438587133437081 -11.428843531394937 -9.313284519633292
-4.544877506062163 -11.441283961489436 -9.288662495771622
-4.582198845067612 -11.449091680896144 -9.278880396197202
-4.647128014325433 -11.466391846484953 -9.256710252198843
-4.719231291207669 -11.471810463046483 -9.2313993500354
-4.778844372310458 -11.472883590697492 -9.209657442464554
-4.859949716540903 -11.472796125438059 -9.177158371142244
-4.930408668804727 -11.484864210073344 -9.14247700814764
-5.00762318306448 -11.495139504333185 -9.103061471261064
-5.088712834244062 -11.500360883471217 -9.060768734936268
-5.153594860324191 -11.507287397668762 -9.025541382408186
-5.237535539116223 -11.497422348158786 -8.9825304889449
-5.2932464239980845 -11.489711600326013 -8.954022497172279
-5.3627823517578035 -11.474700123613665 -8.918190972011072
-5.434032643483002 -11.463078293707039 -8.880299879378619
-5.514447108571592 -11.452693346917215 -8.83463339405252
-5.596487988585506 -11.450672589432314 -8.78701074854149
-5.652065792279615 -11.446966332206 -8.754789315494516
-5.716261456676487 -11.440086816496658 -8.718659710623726
-5.76878277198064 -11.434736731711723 -8.688759041036434
-5.865104203548394 -11.421986529379108 -8.634147451268284
-5.940744227356805 -11.419076187014777 -8.588604123335827
-5.991053233238228 -11.413105920289114 -8.5585382378179
-6.0452520472302025 -11.405187928318401 -8.525589973124895
-6.091495591954144 -11.387829947213557 -8.499148980400857
-6.139128299635245 -11.36959114172395 -8.471769415759873
-6.20329397986019 -11.368199275952604 -8.42722653748929
-6.257592420463035 -11.365084999002152 -8.38815178261989
-6.312124269598484 -11.363056033173002 -8.347212453950341
-6.4009740545499705 -11.36218361647165 -8.275840807508114
-6.456792779118415 -11.354930661310267 -8.230371093639825
-6.520571726241494 -11.36668208931182 -8.168553461350538
-6.564608810545231 -11.371084777453156 -8.124687018994873
-6.615085920364419 -11.375091450634212 -8.071775219151082
-6.656874955432648 -11.378164902901368 -8.026649140694143
-6.698655070190386 -11.380544324118189 -7.980178283047079
-6.7409256067307695 -11.379841310017552 -7.932823736363674
-6.7831614591552105 -11.37912209607541 -7.884169989197173
-6.822553761107733 -11.377320073875975 -7.837800852291019
-6.877666538381199 -11.37916153875251 -7.769494329069638
-6.926935658123521 -11.381441890536221 -7.706370258954434
-6.963905896089211 -11.382390542889373 -7.65785673361098
-7.0234227369431235 -11.379184949999939 -7.579605336291734
-7.072284121050524 -11.367389012880412 -7.516504743751002
-7.114763666983122 -11.360041520986545 -7.459015085527386
-7.148815346274543 -11.3546659141929 -7.412147969425306
-7.181829402313043 -11.346865760885859 -7.366236865248868
-7.2068450530266235 -11.340956259058569 -7.331450293865948
-7.240597868631885 -11.331049266407344 -7.283981375590906
-7.269930571158107 -11.320922771711423 -7.242647111161479
-7.320576842627115 -11.299428139398916 -7.1718931864466215
-7.35705124765398 -11.285283913990613 -7.1190901868529535
-7.422199018777367 -11.265669961452513 -7.01884425198607
-7.480500668119656 -11.241518970439635 -6.930887395036533
-7.542160723915046 -11.206824547621565 -6.8421702381422405
-7.586316734877821 -11.182765002819469 -6.779480670971233
-7.646767613867249 -11.152650126559855 -6.693805042355126
-7.672929025095766 -11.13775920345785 -6.657270473000104
-7.706142972984611 -11.128600115034047 -6.607978752647198
-7.766815315415677 -11.099588385740713 -6.5195313891716085
-7.80879034935409 -11.08001888378126 -6.455386379063644
-7.861322453505484 -11.092682442362245 -6.363301550306503
-7.889850364520513 -11.082633258816653 -6.31589949110623
-7.9239070943135825 -11.071055118573984 -6.256918808857326
-7.957116954819631 -11.060586103508651 -6.197476771533188
-7.9875569269018545 -11.047664739764901 -6.138366634442783
-8.017813237128598 -11.041722018341314 -6.076062911588646
-8.047428434989278 -11.035399777865987 -6.009620015557791
-8.078424083847684 -11.027121778966642 -5.9344250490284125
-8.106197954602068 -11.005627446802947 -5.8583402950818275
-8.122213242425062 -10.998909343904756 -5.807927339516096
-8.136007333961976 -11.005178971350036 -5.754424515661987
-8.150654107267618 -11.009000784185691 -5.6922227985899045
-8.164404240106217 -10.999847530275098 -5.623559471765871
-8.173121731278782 -10.989038855490156 -5.560094706054801
-8.179607646192874 -10.975699562078173 -5.500932378797965
-8.18363779705446 -10.963257468863077 -5.444734896956203
-8.186298359137018 -10.958740265207233 -5.383779058664362
-8.188444035596183 -10.955224539605856 -5.311548335829365
-8.18697156523368 -10.930522600800717 -5.240638928179739
-8.184725207124321 -10.908572648688203 -5.177278173336387
-8.178010891281957 -10.887311471080144 -5.0874868738010735
-8.170817911478002 -10.837949344814575 -5.014217337736516
-8.16087956424203 -10.78336402686444 -4.935693494100573
-8.148426050032084 -10.738874282337912 -4.8611407146619445
-8.136068219290808 -10.699428839922547 -4.798152712767157
-8.118803044266434 -10.673659202376546 -4.72274072582717
-8.091546331332143 -10.637080633986454 -4.6199072512737365
-8.069784203808405 -10.582036510922523 -4.549767185253872
-8.042960850979306 -10.55304059320221 -4.46382431350887
-8.021453012648974 -10.517902867308335 -4.403306800321146
-8.006479939987997 -10.493222465752112 -4.362384622094155
-7.990483482749668 -10.468921885086434 -4.321195896835164
-7.96419174380692 -10.437785406312981 -4.258786966488498
-7.935880663411688 -10.41172711000684 -4.189212202715701
-7.901001592687874 -10.376163460005762 -4.111158350799063
-7.876775312437563 -10.346457995098351 -4.059309567625415
-7.855418629485767 -10.32091382815992 -4.014506597260174
-7.834345883684129 -10.29707778568411 -3.9713933792248337
-7.788323793026611 -10.242221509963803 -3.8829049165922127
-7.743439127954856 -10.184458989978651 -3.8027713329181774
-7.7197036678820155 -10.154628823779628 -3.762357188817301
-7.6916213855084665 -10.12248863795706 -3.7170531868070933
-7.654722731927641 -10.080004897582189 -3.6571941786591022
-7.624976261699952 -10.0455862348558 -3.6118876794288566
-7.596083202109983 -10.014041542144422 -3.566501990301987
-7.561454914422217 -9.97838487399768 -3.514891100991079
-7.532486949595585 -9.94813624220859 -3.471571388202813
-7.48738243331504 -9.897309250584549 -3.406216870176685
-7.463241074421768 -9.87021993499624 -3.371404813176846
-7.425175014408932 -9.829413086067522 -3.3180280552672565
-7.3877001670698 -9.791411558112626 -3.2650665927593083
-7.361359476788 -9.765474619526914 -3.229296423363622
-7.33761658505573 -9.735239398183298 -3.1948217812460316
-7.310799394969826 -9.705403068967835 -3.1585761852742955
-7.283770452134875 -9.674788566378307 -3.124334565231938
-7.257054894099542 -9.64626885710349 -3.0887262843748893
-7.220278444163967 -9.61257609223214 -3.0377959290995316
-7.16915933935475 -9.592912712896284 -2.970273992997093
-7.124663592320837 -9.557682069855604 -2.911441381491149
-7.084652491085764 -9.52477975879266 -2.8589891130157206
-7.058059960862626 -9.497405445486095 -2.8246457443108115
-7.026573027251132 -9.433199926339942 -2.7806905157204396
-6.961202652214562 -9.424237459199716 -2.6994220307143317
-6.894479939018976 -9.430832244497468 -2.6124530875942
-6.820431633169572 -9.435679771690843 -2.5171643115950095
-6.750247972583976 -9.439898272894649 -2.4263409110850036
-6.69621378099001 -9.442703455581686 -2.3588368041411316
-6.613574559817317 -9.430590236902265 -2.2547537605241796
-6.557210763063915 -9.418187578666306 -2.1848275769857937
-6.4904417919116035 -9.398748763287868 -2.1024434001540433
-6.440837166674337 -9.381581379995003 -2.041174311924908
-6.392473645041953 -9.367359429609664 -1.9816099663275635
-6.326712856740737 -9.3513753842179 -1.9020631262753733
-6.276917429271442 -9.342326764498385 -1.8419265050641553
-6.222923453174986 -9.323986788891023 -1.7747575480041209
-6.183574796287993 -9.309203238203107 -1.7267581853786251
-6.1466135966161275 -9.295316475533422 -1.681670880411648
-6.11256757152599 -9.282393476242182 -1.6398291634139879
-6.0653970982662955 -9.260452321457603 -1.583592600222075
-6.005039699927322 -9.236704456958472 -1.5130950280374598
-5.966054521017644 -9.22524774466945 -1.4689680980272954
-5.941024512438688 -9.217952846439573 -1.4415060080012436
-5.892424924342714 -9.197831313096778 -1.3939039214946463
-5.855268896424149 -9.17818381211308 -1.3624330316274564
-5.786129037791915 -9.143440608553554 -1.3103521948399188
-5.7297805925134115 -9.116767041536946 -1.275530551493222
-5.684947197616583 -9.1109929913699 -1.2465396559841389
-5.626744998920648 -9.10292082180538 -1.2119178481067188
-5.572017226542889 -9.099060374165724 -1.180070442548823
-5.490438000108619 -9.090326586734218 -1.1368195336212485
-5.40960233850755 -9.082555862964567 -1.0978011746698586
-5.338938563455442 -9.080155357979038 -1.0667695342843384
-5.2812348002026415 -9.079062775783562 -1.0428467933104617
-5.225565627167849 -9.07759301923187 -1.021170887591997
-5.159821565831918 -9.06520258610269 -1.001148953847629
-5.074918599431883 -9.052617855086762 -0.9758270324784308
-4.990764126487137 -9.068593522656457 -0.9438943526115606
-4.9267602456082225 -9.082970802214955 -0.9212197417178727
-4.875994851052878 -9.09284374779454 -0.9035312216881684
-4.825714451970078 -9.101373817549742 -0.8858763975869919
-4.728708233724249 -9.107154899889972 -0.8582601820169797
-4.6665924204308755 -9.10620599748062 -0.8427539547510494
-4.595581276912681 -9.11878877625126 -0.8224027303887751
-4.524270453240603 -9.113396820306518 -0.8053253164440126
-4.438778911996157 -9.166013526604099 -0.7730040079816352
-4.358705357932529 -9.197056475027633 -0.7423063375077521
-4.310317773049453 -9.224708535377573 -0.7232388845902058
-4.2603942992557124 -9.27185195816702 -0.698295462549587
-4.217703497314188 -9.301978771057403 -0.6796982590645753
-4.1642841846469905 -9.33101790508425 -0.6590302083770339
-4.120448174142067 -9.353407423357995 -0.6416741037689482
-4.068051119779376 -9.375190299782421 -0.6213183463698595
-4.001764464091162 -9.404996717287558 -0.592920166975726
-3.9327920592529626 -9.425623435066502 -0.5647388604297738
-3.8809235396479806 -9.444030749502511 -0.5410985341878689
-3.819408270252689 -9.470320045280328 -0.5115094622349581
-3.7417331246160233 -9.509493532178473 -0.47069272041219534
-3.676853757707865 -9.566636864028446 -0.43040771553117985
-3.635654045726368 -9.597962159803192 -0.40611022961339716
-3.570849101870409 -9.630158797518153 -0.3709695833476023
-3.516727667597694 -9.674299368781693 -0.33763517367416984
-3.4451670021571887 -9.719820947516045 -0.2979096597246502
-3.4048724985390644 -9.759476078956647 -0.2729308691280683
-3.361760859231052 -9.810912037199813 -0.2464057146184575
-3.3128524630654157 -9.884409222004816 -0.21608707347842682
-3.28731697613878 -9.957548740512784 -0.19892355317377675
-3.2645956800352884 -10.009808735713406 -0.18600307001865524
-3.240820489507188 -10.059594535005296 -0.1737874281413756
-3.216902899835378 -10.108574749537983 -0.1628853643246
-3.176325842600856 -10.173726903604424 -0.14675552870417796
-3.130468794835317 -10.226442731738878 -0.1308670568389534
-3.0873152223946763 -10.284374348072438 -0.11918799264066937
-3.0376348874164103 -10.347697154332131 -0.10935207755289333
-2.996678825135847 -10.391408005889257 -0.10238900113314076
-2.954794194796691 -10.447070861351698 -0.10067109169333577
-2.920553349886702 -10.492894299036486 -0.10292245060356109
-2.863093777125619 -10.556578224362585 -0.1090430097026509
-2.8184564605038736 -10.601437398220323 -0.1169796449655589
-2.770754417309502 -10.63869739179572 -0.12522907102539316
-2.720033166249941 -10.673686099708362 -0.13440767695076783
-2.6682380770300034 -10.70574416833766 -0.14515315651800753
-2.5904529754842844 -10.749716359933625 -0.1631711258916977
-2.496459375580545 -10.77952126144599 -0.18003193926314598
-2.439960497829441 -10.798592793140351 -0.19343520571072448
-2.370616246514749 -10.811184155605442 -0.20764414592474845
-2.3050648217120147 -10.822393992261642 -0.22058026590828472
-2.238462018764923 -10.832523045089278 -0.2363190975717684
-2.1648486626748418 -10.842919932326517 -0.2556752750061291
-2.106318786424294 -10.852636583491545 -0.2727147451959362
-2.044314982672916 -10.869782620511948 -0.2961710772375339
-1.9827186857660273 -10.887874760313554 -0.3209566283156535
-1.9212779220400857 -10.906132127361179 -0.34731380659374356
-1.8581208262767932 -10.921336245512146 -0.37348321197590373
-1.7620804325786497 -10.946113181854521 -0.41621459264743255
-1.6826573776538085 -10.985723311848492 -0.4633058687014069
-1.5970507525468456 -11.030013877113008 -0.5169453641323525
-1.5481570439944266 -11.053170262649907 -0.5476596963143776
-1.4768818320810941 -11.082904629687402 -0.587433391187234
-1.4167899209304355 -11.103572919918163 -0.6206312850351279
-1.36359725357958 -11.115661591151415 -0.6472949114560946
-1.2716841500130793 -11.140037368330429 -0.6956014382957614
-1.188644162056268 -11.17195409430467 -0.7453470559631534
-1.139614915744743 -11.188213215705684 -0.7723621304986645
-1.0933522109517813 -11.199607265807579 -0.7968252345488693
-1.0382283044044782 -11.211334449456894 -0.8253156972393096
-0.9749211858647134 -11.230765000498643 -0.8608618989227343
-0.9014191847052382 -11.274428763817191 -0.9121178928593254
-0.8521956665653908 -11.291652263592646 -0.9423554121052948
-0.7723593861406758 -11.319074388370774 -0.9906799211961328
-0.7067817447676445 -11.344409052322217 -1.032266796453654
-0.6472739062248469 -11.371486067179436 -1.0727811477637221
-0.5759749419287615 -11.418419570575418 -1.1294159384861002
-0.4967903262033263 -11.454640347335166 -1.1853119922247548
-0.4417500071122541 -11.477504663667926 -1.223894081860923
-0.39422221642537547 -11.497666882822653 -1.2578035673861083
-0.3416149481711239 -11.525425725719458 -1.2986693581731736
-0.2803043791566948 -11.552946951182065 -1.3443314178030454
-0.22745774527245355 -11.579001544915634 -1.385747029723463
-0.17412706718924786 -11.603771588383577 -1.4270193887890743
-0.10574127555080115 -11.643467066801215 -1.485401735493947
-0.04843829972725078 -11.66841330528461 -1.5309182861909534
0.000556758129640178 -11.697364684902958 -1.5747148390689025
0.04925451216396781 -11.725070008816486 -1.61813401229556
0.09972625260381118 -11.747334881203878 -1.660809165078244
0.1513191260001907 -11.765395398310464 -1.7028758839691118
0.2023303906240208 -11.782496540327458 -1.7447768692668668
0.2520407496758741 -11.799616412405705 -1.7871540088645244
0.2978757096793272 -11.81536049158133 -1.8266935360272898
0.3679139766189472 -11.833446616423483 -1.8863135191545743
0.4571978605353537 -11.86143458069464 -1.9685844030772746
0.5034126633611127 -11.876389708902769 -2.0132263667534276
0.5514975666162114 -11.895069097856627 -2.0636322213249407
0.6002643786346611 -11.913516077231925 -2.1164552919628594
0.6761644975975007 -11.945315273220448 -2.206573034413431
0.7344374118687427 -11.969780455452467 -2.2822753203797808
0.7804401505576897 -11.984666335195838 -2.344483285334503
0.8474769295823525 -12.003325130632469 -2.441201494685507
0.8883981965060601 -12.01294621738871 -2.5039302601437603
0.9402309665411173 -12.010197899482748 -2.587965559799592
0.9789415298503219 -12.038191973186947 -2.6673545759572175
1.0032416963441702 -12.049078642564917 -2.7177347544808166
1.06172163823209 -12.048600310660001 -2.833512883913187
1.1016445432636337 -12.063602178247908 -2.929529875322773
1.1222949754748666 -12.073995231273722 -2.9823782755458526
1.141126025460572 -12.08121276236096 -3.031934160064659
1.1829235948408037 -12.081991280970604 -3.138963786892612
1.200923071463291 -12.070927883072166 -3.1856482337711842
1.2191250570884187 -12.05621213244839 -3.232488482688347
1.2493137765246616 -12.039072071420643 -3.3212414882187113
1.2739419598661528 -12.014745396050236 -3.398110179488776
1.2917701511923847 -11.995851569067415 -3.460915353849491
1.3101887987687288 -11.999222006905125 -3.530631478040257
1.3304215011701512 -12.01563569072657 -3.6067961395845325
1.3468388556590976 -12.037287694522314 -3.6699713085436025
1.3605217663956195 -12.044378352729343 -3.7288863922125826
1.3752489828893089 -12.063232727036217 -3.8021345985397383
1.3867287556272425 -12.078442518020797 -3.8743218225894536
1.393055088190722 -12.087810295343404 -3.928537610669072
1.3996765921702508 -12.101452127143084 -4.005894845162563
1.4052759889063842 -12.14138321030071 -4.1213306764443
1.4049935175622121 -12.142888694532973 -4.178355980379791
1.403160572541591 -12.143200594743622 -4.244357935389322
1.398766433745511 -12.142186296628033 -4.338700919981446
1.390922888043088 -12.12680385726817 -4.4237992730444216
1.3840889315374565 -12.125347146284073 -4.503794036385195
1.3770070442267157 -12.1317026034949 -4.576048374951326
1.3709917747557185 -12.141499346518845 -4.646589379629039
1.3662732401005127 -12.14740398329665 -4.699676512879686
1.3607028181385379 -12.161223241415032 -4.7753336447956345
1.3568531235611963 -12.179442229274947 -4.842296187421859
1.3542770441330834 -12.196651498366311 -4.905995367622051
1.3505257959438073 -12.210968046827661 -5.00333347348292
1.347410411899012 -12.239253065483007 -5.118912236791316
1.3472923533924173 -12.273286532898604 -5.191742094543059
1.3474521162219235 -12.308473113591772 -5.244241381412507
1.34639804762681 -12.357863097823808 -5.322835010231543
1.3444461745148593 -12.396235821160522 -5.393651885285542
1.3394935830505574 -12.444182520995938 -5.496613466270272
1.3347571341537152 -12.462953044721333 -5.562099445509486
1.3251333680816664 -12.482802139536757 -5.661904547976448
1.3191994296607812 -12.48012033687054 -5.718179552363086
1.3073813368316227 -12.467253739705987 -5.799870934667876
1.2982869004095015 -12.466530682012525 -5.855906485052025
1.2841391363668218 -12.463051706937728 -5.932048935697034
1.2679053161982379 -12.456222462522376 -6.004222859791454
1.2494718980123702 -12.443156764293974 -6.07828951027052
1.2178025255397877 -12.435588606774614 -6.178690887073375
1.1938200502745524 -12.429964851021117 -6.243759167629837
1.1585140731946135 -12.447640332410316 -6.32447504552814
1.1308156722040696 -12.460639475153586 -6.384653717577373
1.1009871191246299 -12.471436638831522 -6.444924011528678
1.0684901235875552 -12.480428455326877 -6.505174454438721
1.0319694353872693 -12.488248088057421 -6.571361155892672
0.9590319833623895 -12.474127073289715 -6.69783833580384
0.8947944085082844 -12.449768767574232 -6.803191129117853
0.8561169405355955 -12.434669855530307 -6.863331803739212
0.8176806229283897 -12.41719569912829 -6.921598118465437
0.7738465988754311 -12.390222091848624 -6.987748320671369
0.7327329398018938 -12.376464530780527 -7.04532483749701
0.6930709861057525 -12.382159519394753 -7.091280819670264
0.6573579745648488 -12.386856864824209 -7.130942158359347
0.603847968601686 -12.392623417821508 -7.188171214085094
0.5562460806563194 -12.394622165332695 -7.235721961276043
0.4742676835177664 -12.397359291441196 -7.311974234107351
