357
4.23510716488587 0.24689924951011855 23.09412961247659
4.245714642377877 0.2834880895019378 23.162122214295078
4.250380678056566 0.3107178560946464 23.215712347533277
4.2526715413609875 0.3511145068232937 23.288167427071294
4.251411837105075 0.39053049712337295 23.349242259604598
4.2472889050247815 0.43603162939279483 23.414348947286637
4.238470005207152 0.4966538750413225 23.497864066368823
4.233098020076707 0.5282227204614849 23.53918747426163
4.226589627812564 0.5745619506781445 23.593904241652417
4.216648595255371 0.6394625458620811 23.674086720905493
4.204042937495515 0.65978557082246 23.723854328482215
4.18795177377387 0.6875557479567551 23.78339004554557
4.176165421855827 0.7392306562729332 23.85390078770684
4.167211165331982 0.7800903449946122 23.910772872493894
4.157994548964276 0.8173572821466275 23.963713479845403
4.152110874003545 0.8557413071040829 24.011936113837816
4.145609099817278 0.8985903067317722 24.06086375073157
4.14161982866824 0.9670422804178209 24.129279570252955
4.134439355260417 1.030610369244297 24.197924497582335
4.128615417202375 1.0813309104382285 24.250135590650327
4.118027545784081 1.1601300596516284 24.331578704353547
4.095713998104419 1.215135069778711 24.409634108863624
4.077433896871576 1.2563357998770563 24.467993388992447
4.048576941306025 1.2948707149472887 24.536095570990454
4.033779933314763 1.329980353184186 24.57858447474922
4.014877414888143 1.3822429918973855 24.633045329029198
4.000185419912862 1.4285592550112487 24.675167962202604
3.980998029570909 1.5162265858308166 24.738032530110647
3.9641642121898553 1.566469223066288 24.77602577409808
3.944919790945007 1.6149169327230386 24.811228512930725
3.928781125424897 1.6721571115511857 24.842436366852002
3.910771085911602 1.7273682588581425 24.87111391654323
3.8901044402944356 1.7841763636054175 24.90033999499162
3.8683654099506555 1.8383004668982992 24.926106823912832
3.8289463277103355 1.9115161985845248 24.963255447944867
3.7600456619946128 2.0023460223407943 25.013011158490503
3.7084870835905033 2.0647836377801996 25.043913298533482
3.672907053181211 2.1121840791077737 25.06324880340767
3.635864836635485 2.1588457842012128 25.080135343861137
3.595124031180549 2.2042829850944443 25.09847471894437
3.543756039726242 2.2632212041941413 25.11883175054787
3.483311928786545 2.33441728049985 25.141895790143476
3.4302853178843122 2.388501897716943 25.16057471183097
3.376233763820185 2.4417076067726144 25.179346732606398
3.33403192982557 2.488261586605722 25.19432566396126
3.3018582046886165 2.529090477892159 25.20618469561292
3.2514309279655365 2.5916651122958703 25.225097031914196
3.195685417178452 2.6505775867572012 25.245444006101803
3.1620211334620993 2.6865610243295563 25.257899201130012
3.1239229402220356 2.7303337031736454 25.27197370067806
3.0780418874906 2.7835441707847917 25.288618700877517
3.0395406838647627 2.8295283752807423 25.301987562797766
2.996921241561326 2.8780002034317134 25.31688091302186
2.9497681044067505 2.922568797749588 25.332630086035955
2.9086324921499207 2.9592769369872354 25.346465333184383
2.8414955215970124 3.010513928543686 25.36857378359835
2.789796619199908 3.043279691159917 25.385452136686116
2.7311402935288145 3.0788382967955137 25.404492468815896
2.6721400021404977 3.113714627153346 25.423753833256974
2.613997514724044 3.1546214898878544 25.441891000865315
2.5557698340482498 3.1944525446444203 25.46000107670506
2.4935734759713872 3.228430806793442 25.47919414769955
2.4438680612675716 3.254714522238701 25.494764521560654
2.369507672771247 3.3090649631130757 25.51631750624906
2.310885299337182 3.3448477878964775 25.533426473070623
2.2382911956607314 3.4009874817782286 25.552761563857633
2.177015527485877 3.4483424358372936 25.56880535182031
2.0977647229052088 3.4829226733488765 25.590692170659686
2.036762289949835 3.5180603869048914 25.606256891906433
1.9762136645089832 3.562773817567696 25.620865591277916
1.889963020768193 3.6139665206482148 25.639257096614774
1.8232655577153851 3.677268475725419 25.649324873721564
1.7640024751224668 3.7190008076491434 25.659181764307437
1.7123431018431006 3.7534478055252114 25.667277860729516
1.6225343796634604 3.7987225670832476 25.680956928656688
1.5447218263757665 3.853280496032802 25.686638751481016
1.4784859600690645 3.8787069731786445 25.69455217276995
1.4107019598358839 3.905238431234867 25.701001534619788
1.3200864436874102 3.9465483644179784 25.70517095985496
1.2338358836628258 3.9773404682307447 25.709206806373807
1.176064752285573 4.002963614577022 25.7081669205997
1.1145495853021614 4.027659266455555 25.70682235296014
1.0412496295253477 4.0529676498573535 25.704895003963507
0.9930142709959675 4.068532163218656 25.703144303010124
0.9451380154728395 4.086959834911298 25.69903424265606
0.8858460643270019 4.110411772194234 25.692238523246203
0.8271873248958626 4.135668053724389 25.683117237772272
0.7638272484756842 4.167027946944313 25.669665738584662
0.6744097375955173 4.200330250099795 25.653944715466817
0.5771928290450132 4.231553498436366 25.637293125144875
0.5212755588716527 4.257787161027586 25.621603355677728
0.464085312440333 4.270409341424238 25.61346545062833
0.40546704689612134 4.280013714394151 25.607235264768324
0.31077909217919064 4.306989277996903 25.588507093303207
0.1705152949750628 4.328046772983916 25.57347043356759
0.11256398327637473 4.332755823093835 25.569166198733665
0.04671395297962189 4.338678438230603 25.563561908646296
-0.03125483588057043 4.3424911131496655 25.55795624220502
-0.08956480957300772 4.347772548165085 25.551139824901064
-0.17370766080729072 4.356922940381095 25.538768731402076
-0.22769228954413312 4.360343633739557 25.532312256782138
-0.3143762141706472 4.363605351321721 25.522863783271248
-0.4103375070428441 4.378541949252145 25.500843825896595
-0.5089334755492432 4.3936475467605725 25.47697673065483
-0.5764245357994049 4.403121741801793 25.459611042086063
-0.6531579909543559 4.41052590959364 25.44238870497509
-0.7192289262543692 4.409743653624542 25.433469445681524
-0.7930403838485864 4.411461786601591 25.420050194650536
-0.9358583803934606 4.409783215167889 25.395703304057452
-1.0196259025930752 4.401876831073137 25.386414484880778
-1.08564013225547 4.394571916493108 25.379112867146542
-1.1572862054484732 4.387725528108622 25.37034075904162
-1.2121846069476876 4.378002005433067 25.364665531269406
-1.2795810005727508 4.3657926834624785 25.357785876410222
-1.3301433630048038 4.357839825957873 25.35138191645645
-1.3621485592350966 4.353298404801268 25.34457240968352
-1.3997065452667654 4.347969054306805 25.336578833180198
-1.4598584860033876 4.340948304606357 25.320236833248558
-1.5275828181951197 4.324836259886081 25.30735486840827
-1.5964031169737967 4.294214303636884 25.305233640910966
-1.700027081462532 4.230493372099819 25.307161415394816
-1.7532054806402744 4.211935716935561 25.287137697514083
-1.795129125898437 4.183357827500574 25.28267283077942
-1.8751546048760594 4.137690488052524 25.256690165131484
-1.9314336366497507 4.10490815361753 25.23315374095369
-1.9824557336364557 4.0580403514336885 25.223688638830986
-2.0213210698104502 4.010150368800727 25.223615852842443
-2.0592646886600994 3.951575721896182 25.231404435010354
-2.0990984142591946 3.8810899197469313 25.244689495067153
-2.1403931681165194 3.790959552810773 25.268678263830616
-2.179351213931226 3.715617956889397 25.28127083557629
-2.213473461586349 3.6509238300360725 25.290387680448863
-2.2708489421068254 3.5753358850343657 25.280265407856398
-2.3200819091881524 3.515344052282382 25.26662182538421
-2.360786526259485 3.467655268266043 25.25210070090193
-2.4031849205299887 3.4164571645336546 25.23572419920927
-2.4444850762996007 3.361733096512861 25.22082649386881
-2.484734515005316 3.3037252989220836 25.20722018552582
-2.524204845543683 3.243747804468293 25.193641773447126
-2.5690805917687403 3.180235321010808 25.171864205168234
-2.6104208267373403 3.122109637636507 25.148717956501713
-2.6458684950529516 3.076336697265445 25.12392210688846
-2.7093669625236245 2.9932657459033916 25.072890246892683
-2.7547776678503935 2.935884840984123 25.029210928614273
-2.7864427774754725 2.880005770667201 25.004085448476108
-2.8229169718237372 2.824571689762414 24.964815747768
-2.8787694892090547 2.76379682488575 24.874466995162333
-2.910359855872941 2.710057926819374 24.821981439160933
-2.935768980153366 2.6511416767025784 24.777382997942244
-2.9554499814387016 2.6010314217336212 24.739359848547476
-2.972053746463409 2.5628765443483106 24.69648971489297
-2.989602944120067 2.5271995544140955 24.640464871879455
-3.0088796193602105 2.474662365116288 24.573570361148484
-3.031747780944884 2.411130517341311 24.489357215362503
-3.0480274500806095 2.370584310938141 24.401485027295717
-3.055227321110565 2.3511811604549067 24.341133490662408
-3.072853570283514 2.3064866276489946 24.284513645323205
-3.087868090104645 2.26855280946549 24.211924028252138
-3.1094697133972513 2.2225080041005167 24.129387211442054
-3.140613595589593 2.160184078657087 24.061442173738104
-3.1680705342577076 2.114486010038557 23.989619771557436
-3.190347987546481 2.0783492795533567 23.93683886985023
-3.216649939274223 2.0412204029808807 23.882276478164833
-3.2309352661800297 2.02212961877182 23.827869001546464
-3.2612264748020205 1.9790236387418016 23.753417870349544
-3.279657728030962 1.955641894474802 23.701860545267916
-3.2961709661273417 1.9392848545437735 23.629787266351016
-3.3164837889016914 1.9165650359728092 23.572619618110235
-3.3330633500219617 1.8947789765344762 23.51379303898776
-3.3516368296604444 1.8710262441018524 23.444993699728126
-3.3675276290752434 1.851859638847052 23.366737082968058
-3.385328547332337 1.831353481096482 23.23782746295196
-3.3987127485910085 1.8055246909257516 23.17247870354649
-3.4060313354169427 1.7846396412482994 23.10377983354096
-3.4113049385660137 1.7650385016030914 23.043201936165865
-3.414727662396822 1.7393906003063446 22.969434582917803
-3.407808377972686 1.7200788692552822 22.86789786864733
-3.4000824886243217 1.7054047002948647 22.79911342042425
-3.3876687085439734 1.7056441078494384 22.744232662062483
-3.374873622854591 1.7042365452193915 22.68882290881067
-3.3678230718500384 1.6635689469585027 22.61778453709202
-3.3596996808319464 1.6287439551898786 22.558703032864255
-3.342490584942582 1.5948112577401627 22.47660742174189
-3.3266482805858413 1.5693245966331244 22.409898610293222
-3.3136801219324594 1.5405426285238095 22.353075603408506
-3.2931686496847616 1.503255969423645 22.271785797317353
-3.2708562282757843 1.4647731277548754 22.1886050903993
-3.2532063956270143 1.4348781333288374 22.126413614741185
-3.2351633813866414 1.4059957269621892 22.06364068997059
-3.211027503937067 1.3694873852623843 21.983519629597268
-3.1771228571059353 1.3329278377342002 21.875292999304097
-3.1545918804589252 1.3092838483702558 21.80393772828648
-3.1388626189808155 1.2970205827583705 21.755212422488516
-3.116405453161809 1.290344191561504 21.687998251211678
-3.0964349758605136 1.281523404376989 21.625946628955507
-3.076959332753078 1.280142864088669 21.565511327556866
-3.057366411584514 1.2821355164459158 21.50464168238493
-3.0339073204446496 1.288700822689359 21.43148258270589
-3.017173146181988 1.2989517926876506 21.382656681101672
-2.9934644522195875 1.3016859462053552 21.30272640822687
-2.9734037682348724 1.3003177160715655 21.23653164910096
-2.9465613033836418 1.3195059062817551 21.155354272792056
-2.922963325715598 1.3258274706557318 21.083100569686632
-2.8909009152500307 1.3320503952251281 20.98891763147523
-2.8628266721744753 1.3355796151258181 20.910972768711442
-2.8431278316265534 1.3520232991716725 20.85932193168732
-2.8161268082018704 1.3755282749625206 20.790108181364133
-2.7997637577724817 1.4060131107223903 20.7480868859625
-2.7815112211819155 1.4398932414879504 20.702030616725445
-2.764155732349791 1.4752432090586327 20.65812629872214
-2.74111703650704 1.5185566510102018 20.60119653374496
-2.708854736696109 1.5541231383750393 20.527901695853625
-2.678287915998607 1.5874811312207326 20.461156990642113
-2.637491923043111 1.6217347174651355 20.381043427711898
-2.6083280392467714 1.6430278512277658 20.32833820104547
-2.575081530752689 1.6673346293175577 20.271038178394498
-2.522685503435784 1.7177501509085487 20.18745924166595
-2.4789833896355207 1.7598699724825464 20.12361718878004
-2.4418011172024414 1.795520926792234 20.07427180457466
-2.405660910314573 1.8301232969399799 20.027828509648618
-2.357851170961548 1.8760080320096313 19.970041449164693
-2.2903212771767256 1.9344313944156035 19.895664586212735
-2.249648611715938 1.9667819550522696 19.852670924136262
-2.207438776722249 1.998037653677453 19.810774946312705
-2.1564336405109383 2.0354233304564993 19.76117001311307
-2.122435672941898 2.059019169623963 19.72846839354132
-2.064064559900336 2.104983807855218 19.677042101689043
-1.990935165242765 2.1586632252256743 19.613615034268474
-1.9469525963741925 2.188959647135884 19.576005238926456
-1.9025931062612085 2.2204342568699325 19.53937148976954
-1.85845666575506 2.2534728239089903 19.5035314637929
-1.813778842448284 2.283624503666939 19.467389942474785
-1.7683335483823541 2.310569086698198 19.430953720460757
-1.7210014884852411 2.337489681093719 19.392945821165824
-1.6797637554506577 2.3627322138743674 19.36029033653778
-1.6044108010453548 2.4074571543385757 19.3022434925327
-1.5585116607377325 2.4337507805783423 19.26789730093126
-1.4979737862577667 2.467796066823235 19.223682516483787
-1.4541419087890233 2.4967411954191814 19.192478912155124
-1.3997436417583888 2.5281127147061397 19.1544105396926
-1.3468465295757246 2.555015172814338 19.118791078181015
-1.2922198882149807 2.58437974968675 19.08312554674987
-1.2374358179628475 2.61131976864346 19.048987037644387
-1.183164304191788 2.633160321864671 19.014406767514803
-1.1281832231108357 2.6538623384337257 18.981072537893464
-1.0757587412276164 2.6751596230737578 18.951780724720546
-1.0190011541189905 2.704283413098042 18.923581255171474
-0.9757593515820673 2.7191759717808663 18.90193760735454
-0.9222486726033614 2.72445928230945 18.872942281015742
-0.8691552335963768 2.73166578458643 18.847171167553594
-0.7612775978362263 2.765270275082538 18.809283088791503
-0.6888689360733349 2.7844211896431927 18.788981873721205
-0.6359592631070663 2.7781532569339644 18.773417653410434
-0.5595086143415955 2.768284784714327 18.753478595393876
-0.4726937310589041 2.7515660646918922 18.736550737854053
-0.3678007889660462 2.7708494879303487 18.736847468862006
-0.2733569102836404 2.7700353605272223 18.738549131544133
-0.2140327931743633 2.768497320182706 18.743514977745335
-0.12719709472537089 2.774081484809483 18.752734911057495
-0.06832551009662624 2.7768672853908987 18.761425524855074
-0.014628197231008055 2.777330819969955 18.770122249161687
0.07823117902617716 2.771483202859897 18.783897825600185
0.13793113246113253 2.7632739312428027 18.79234312544036
0.2263456782794584 2.7435790163996927 18.802168928706294
0.3165202976096615 2.6953834413527247 18.806534804208358
0.37159551002355173 2.6601920690495637 18.809401281099706
0.42709826254283956 2.626344162678242 18.81434188472885
0.4832966920179297 2.5944161684239297 18.821398201874356
0.5399590740457558 2.5611999801394845 18.830211750371227
0.597965961729578 2.524758620050841 18.840553973151238
0.6498321845639452 2.4914835667111968 18.851242338071646
0.7236286456009772 2.444028810793018 18.870107489949895
0.7787475104423344 2.383640367152749 18.883185593745843
0.8331803108214111 2.348242730261303 18.90071515234336
0.8836619828940586 2.317883712793787 18.919902009962613
0.9844626727113786 2.2746655016743604 18.967367601786428
1.0449908518421656 2.242540274413633 18.998113788084986
1.1036944584357666 2.2072870999403653 19.03168716213197
1.1448799498757953 2.1914495157578875 19.056597265828007
1.2032452050500964 2.164423564017606 19.09415278359591
1.2510517590991763 2.138271284272732 19.12620803930279
1.3018539535835087 2.1060512289638824 19.161590889863454
1.375852927877022 2.075717608567473 19.217176016759453
1.447341261038171 2.032048435234688 19.273291058337392
1.506086048521845 2.0035298632226857 19.320986702744552
1.5402649634148002 1.9772680277344767 19.349071656597207
1.588024292714084 1.9394482483299031 19.389534411417824
1.6340635064443045 1.9049725391680845 19.429694580960888
1.693851994168255 1.8599371636428883 19.483120712781517
1.7379312456633669 1.8143140300488947 19.52208642127488
1.785192133665373 1.7625848189768034 19.565089379517556
1.8337326991027103 1.7112155690192694 19.60972616704872
1.8768855900272166 1.6723622990842453 19.65142826490159
1.9315033961086003 1.6247047102948111 19.705816986860622
1.9850668651633416 1.5909988083141011 19.765642844725498
2.0344647616255256 1.5640979458478645 19.81950467390908
2.068574554156597 1.541791575114144 19.85890920535266
2.0995509398312224 1.5166754354168444 19.89525425752527
2.135367332278581 1.4868950188094676 19.938187669517117
2.1815316211255777 1.4456263451589415 19.995342128172204
2.2044464500301597 1.4235519242991839 20.026197923661822
2.236831270585492 1.3883803349723653 20.065537135442618
2.269167046678464 1.3529212345624118 20.107537775796313
2.2950583291662587 1.3224734963252704 20.14107924833558
2.3223186257968687 1.2932198400336967 20.17672349371931
2.3651813233185885 1.2503030448826327 20.232926364196295
2.4203786595534744 1.2131646560985685 20.30495925143272
2.4509211483958113 1.1942847601136644 20.344713065244623
2.4943118827160573 1.167742920035707 20.40147965988358
2.5275522664243306 1.146476362219006 20.4451091295258
2.5714373620218813 1.1169562548627001 20.502925066079758
2.6059234029803005 1.0912934604763926 20.54838422688039
2.63922526736435 1.0642968242253137 20.593137196451323
2.6735209030445914 1.0347188108417493 20.63914725984917
2.7085397587080045 1.001858877572767 20.68625397091806
2.744123175960055 0.9659287187387318 20.734093613525438
2.779966919493618 0.924331150130546 20.78248418692776
2.816353448019972 0.8805931103635365 20.831602518413476
2.8410988964542074 0.8512651832680327 20.86498220629431
2.865894183491843 0.8247673850725505 20.89956452856226
2.897826226975643 0.7914626186916822 20.94326780693704
2.9321328718579753 0.7574123483907826 20.988373460407317
2.9700322875494374 0.7220702726981794 21.039740669555066
2.9961901805163507 0.6975670640419358 21.075781493852777
3.0228977179363534 0.6733405439620876 21.111796484711075
3.0497955384975146 0.6492456825476378 21.14862277573407
3.0764967920102295 0.6255994398236482 21.18424897492138
3.1025802587558236 0.6017968781044776 21.220894275675665
3.14224576458935 0.5706061776550533 21.276231102925138
3.182339761229761 0.5404379413634033 21.33141014485371
3.221145769948974 0.5071123657789569 21.386005460251017
3.2503057012566536 0.4814001107495962 21.42666732753688
3.2971148122258427 0.4258578847226391 21.48947481482131
3.347568676240198 0.3624837116655766 21.557866492077387
3.3964762667906196 0.3155131524057533 21.62562159389948
3.43541654074943 0.296030732308066 21.681656631722817
3.4664086529062796 0.2800000917531895 21.725924065812304
3.500645385102657 0.2759210112347257 21.778019342822226
3.549391013281367 0.2602362700469876 21.850860136309407
3.5798254806977683 0.2340492678802628 21.895214598351117
3.6315329694793546 0.1880971068145849 21.96828618255572
3.673192838126047 0.1461868167754885 22.028473719884197
3.703708116536922 0.1311931539626452 22.07415104682901
3.731694339778586 0.11809344039548475 22.11739379176731
3.768928992359804 0.09739146326453096 22.17207510305571
3.820525030772467 0.07217180600822215 22.248823424939783
3.871004456627846 0.04328656807075881 22.324067581395074
3.9246878742507407 0.02700895817207205 22.405019423977595
3.959988784312057 0.014838843807367441 22.460506202145506
4.015528729953521 0.06895873171645328 22.55415636471527
4.048529847851806 0.11334466286380551 22.61305567636645
4.088207392757697 0.13466779665500028 22.685875290609783
4.11308547741752 0.14503211936438665 22.73560626753504
4.1391358096485105 0.15564111681715365 22.79168503349277
4.173625275720258 0.16969669072534832 22.876902993327356
4.197898186007038 0.18107698728322252 22.945525601340346
4.223988875279801 0.197980232553854 23.025353804666587
