395
13.849057044163507 -0.8777367816576507 13.608193001972882
13.83197314738464 -0.8018499318497998 13.593804599108697
13.79865307054924 -0.6830518376543817 13.559494671004536
13.774893520835446 -0.5765812614610542 13.539589228264639
13.752173627595733 -0.5014772466242072 13.514341693732408
13.736035798433365 -0.44501581950632163 13.495395476611193
13.717706130503542 -0.38555293857964434 13.474712788242844
13.698186459196526 -0.32992087219266386 13.454049905015896
13.685137920708495 -0.28147538310252473 13.439645037586118
13.660338560746023 -0.2085953877823763 13.409226441480175
13.633641334393953 -0.13000767666518565 13.378960175806291
13.618246045922408 -0.07478651111222323 13.36323001158961
13.607227678961616 -0.035265030364193706 13.351970989975815
13.590468493372779 0.02412444782669043 13.333603816946695
13.575947927826686 0.074455809296889 13.318193658680531
13.562162353705938 0.12055978407478962 13.303070535964647
13.547511606108516 0.166682157862716 13.286923062812669
13.532861331324165 0.2130046245950621 13.270629351696737
13.518058274235942 0.2594362829053387 13.254193040067005
13.503104227744673 0.3059650261565152 13.237589897097465
13.488268230257937 0.3526123908529333 13.221292438678528
13.469135383323843 0.41919348736057627 13.201612212118292
13.446875374720056 0.4937555135615006 13.178620198651736
13.432355270584285 0.5405264079330343 13.163277076522316
13.417944909470156 0.5871668282936553 13.147866152928533
13.403473876360453 0.6334305419222477 13.132859017738532
13.388767133280446 0.679427889090308 13.116887854732486
13.372950478681151 0.7258209343206716 13.100495284944035
13.357593066215813 0.7714165168719602 13.084138936858928
13.33464108895778 0.8389829513185085 13.059880015653103
13.311590988232773 0.90637149898417 13.035837715627004
13.292400554331353 0.9637641681867737 13.016138114662006
13.27118372448265 1.0269871855195416 12.99430995604041
13.241458934975947 1.1009848559077517 12.964096397217986
13.217485934456777 1.1630474012790049 12.93800130222111
13.194155659284446 1.2236500342225258 12.914607952510181
13.171290233312194 1.2834583402434148 12.892044810597014
13.140393080229867 1.364455828533194 12.862638062371754
13.100346264320944 1.471748040877816 12.826933352181246
13.071638760941806 1.5387797641321472 12.798980013078108
13.051885735154729 1.5881891745687855 12.77994041459105
13.019264892162115 1.6767986866624853 12.749842267887388
12.993379997020986 1.7502928905188821 12.726816286663038
12.963665362536167 1.832238182000649 12.70039201224973
12.940755595478013 1.8950560427796943 12.67888354093331
12.914759192541407 1.9616524679836789 12.655664470104075
12.893170618427904 2.018521540094992 12.636203901333808
12.86996246074978 2.0797722321980303 12.61531263864898
12.846532995248804 2.1407543168192604 12.594282996012701
12.825637092693038 2.192240314575439 12.575205905874274
12.795099742877243 2.2606900383228186 12.546215189451004
12.775240563620379 2.3085181998185615 12.528508913597708
12.745539523519634 2.378748648380785 12.50103943607813
12.719184566991515 2.4404902416178094 12.47774065977288
12.694121532584328 2.5004419708742653 12.456654609400033
12.669979493329157 2.55901945918947 12.4377183963283
12.646198406151465 2.617313444255672 12.419579094616015
12.621938173006647 2.67703200560975 12.400441751804518
12.595750143742418 2.7411839149087913 12.378750542237572
12.565763802511745 2.8119775837724066 12.354402606026362
12.535210993939739 2.882436436978549 12.332566689829239
12.502388904893197 2.9546282761190086 12.316555820463432
12.47067255585649 3.0263277103259605 12.309658622086708
12.439576310617163 3.0943524955821684 12.31437299486267
12.418092859004055 3.1714177322519705 12.315831845640282
12.39797285497394 3.239048679556395 12.325234438549753
12.379717494459094 3.303369276176696 12.337077632030294
12.365797667423871 3.3610915562778394 12.351702805002539
12.35245559367388 3.4347046127940817 12.377709491656205
12.322519428292424 3.5236199601384057 12.392917754355196
12.304812189915403 3.5909671294452017 12.412293840380041
12.288188488612368 3.6493226234774743 12.428913540992077
12.272395616999185 3.7044876153579573 12.445417009664254
12.247977914514607 3.7712290980247034 12.458215730336853
12.22188988869771 3.838166270643296 12.467868744863672
12.203723853106919 3.8927036651942415 12.483106243716946
12.173920708383847 3.9710142879403247 12.498428943127692
12.156941966644856 4.026480504242329 12.513436640947557
12.137384887525052 4.101442628247842 12.54233269729039
12.112654241261 4.1905253790248285 12.578248922817732
12.087553984318358 4.271453152672688 12.6044159995431
12.066258715027164 4.336311663007933 12.625048148223986
12.050046379880497 4.400589084013745 12.652095879096322
12.033938349925261 4.472067294141759 12.688509992645113
12.018420756593196 4.540164099873444 12.72384504697012
12.00416604095502 4.617284623033962 12.772046387999204
12.000991970683321 4.678247372576362 12.831556761580778
11.995331681788356 4.7434885784605925 12.891561989110183
11.99459264632802 4.790288628808094 12.941821418746773
11.992934812541206 4.82303969812075 12.982062735995026
11.985527187729788 4.871075161104214 13.029524459387538
11.984152628518574 4.9257180144640795 13.095158201569568
11.974831069419533 4.978372609902232 13.1448229803542
11.956160425013808 5.048682751151194 13.197348194418417
11.93986616816456 5.10184273997667 13.227630647516836
11.924014029958725 5.165469605309585 13.284498863948272
11.905197452173187 5.240387091126017 13.363211796834932
11.88255890391944 5.308346687924283 13.417717206518503
11.861229880828418 5.361390737217979 13.448734191534285
11.821616209740057 5.453408867682429 13.508939812257868
11.798959731286661 5.501251227301887 13.540155012970096
11.76908713627178 5.561628371048437 13.578678855448238
11.74630601165446 5.604234722780383 13.604620426622514
11.723258133258236 5.645549382666244 13.630670908449883
11.700733014139264 5.684696223994589 13.657962948894266
11.678049876741085 5.72296920935452 13.68507580780551
11.649882706357603 5.7695600891662835 13.725501284850097
11.617481055160896 5.819320983984408 13.80158683924228
11.593775017750112 5.853686875185865 13.829679319247678
11.552687094443495 5.910053872758153 13.873631339317765
11.521756304989937 5.948640882751848 13.922239893474782
11.489466188163139 5.986731201242218 13.971583891121483
11.458004323627199 6.020035950511748 14.020257851467626
11.42518848354802 6.052274808505034 14.068958137835452
11.396258046551644 6.0783862165412845 14.112157931812522
11.35694701153334 6.111869161161881 14.164568558048256
11.320578998150586 6.139513790450806 14.210915034060982
11.282903704460585 6.166023569229921 14.256416432276549
11.241651140330355 6.191810139601106 14.301372789607363
11.200930445030155 6.2181180475228075 14.338369904053614
11.166271835694753 6.237844770344161 14.36949938214137
11.115376165816194 6.261008653908188 14.42250858448562
11.071993748908943 6.278910327665896 14.465837921706175
11.027343771843189 6.295308734346287 14.509694106438445
10.981951151667108 6.307940319088333 14.551999159933409
10.934514359329109 6.320020536691855 14.595721511227023
10.885417121232319 6.330996587262678 14.63749657552222
10.834263860497602 6.342810647996714 14.675421577548256
10.78915121057577 6.351155260731446 14.707268960516963
10.730476494369277 6.359987482998299 14.740868238995503
10.650474101249143 6.3605854130713855 14.805852865127964
10.588230593972453 6.349987515638093 14.860882011771789
10.51052440202578 6.355504496789639 14.896427325693576
10.443409153771164 6.353221606861297 14.932668351236451
10.363956316567695 6.353592404579121 14.967687811103541
10.298885987110518 6.358432724482096 14.98894747230062
10.209882113112101 6.364915539827518 15.015500904472578
10.129153137095512 6.367976323774448 15.040736399557023
10.08099299857048 6.351025372341589 15.07448228380117
10.027837842301974 6.34990656921417 15.091736354701617
9.971104216664544 6.345774087695558 15.112926096970988
9.901882013017952 6.3439411097179494 15.134684263090083
9.81967277544723 6.326725396615615 15.172666072490202
9.725748753909516 6.298119880295584 15.220909059364114
9.66282949250068 6.2801104339306075 15.250900849826941
9.594150341483797 6.256843775208139 15.285462863753168
9.54086796641596 6.2404597595631905 15.309989186599374
9.491634300395683 6.225299867469394 15.332270714254673
9.416786971342537 6.207621964239216 15.361575817149998
9.355341372302789 6.192506725679177 15.385498809637443
9.295030348069172 6.177502721114276 15.40883244959689
9.228796621575237 6.157938306050831 15.436269359708458
9.179064083968614 6.143643296381551 15.456377540541979
9.118002867992866 6.12613784091859 15.480742065654084
9.031628117973057 6.101582692377878 15.512396600822843
8.957280420603615 6.080804628158226 15.537962116156923
8.900465691565916 6.060369179540153 15.559327989353449
8.833790091763117 6.0395321706234615 15.581516159223533
8.769973248410231 6.019253230806864 15.602143511694841
8.689945853006208 5.9887293930864445 15.629402402967713
8.627203690588125 5.956230600483334 15.654596291242047
8.574830909206387 5.90641616346924 15.688021016813433
8.528622666092563 5.872467528528322 15.709126943921785
8.41577805593903 5.827855251097795 15.743972410674033
8.353231339932547 5.795156651823813 15.764682085176212
8.289451367035394 5.761246659017454 15.785024500047118
8.232273861282641 5.730710566750769 15.802407516842234
8.174168308146397 5.700103276295348 15.819751864454066
8.106736325638998 5.665016994052767 15.838160037444766
8.030783961068668 5.62475833868209 15.859316151698575
7.9722481095773965 5.587397465397498 15.875074917439886
7.9141036490871155 5.556443045682318 15.887985200639534
7.8567174333351 5.526270304869449 15.898242687762693
7.8054260764808845 5.495782122915955 15.910226311014195
7.706526769342718 5.428217595433702 15.93287463841892
7.647055756909592 5.388472479218903 15.944424613585042
7.582399377455942 5.335044391065008 15.961758113800329
7.526573996764407 5.295171931295979 15.97080886767661
7.4725916819586224 5.2573975405668385 15.979678894358297
7.42180626552642 5.222389412034831 15.985959597744586
7.35670265654108 5.173977866976033 15.992769873562818
7.3169951264115065 5.134289934396801 15.997933075592023
7.271309740664368 5.089347004095547 16.001839771748223
7.199072100686497 5.026126029029944 15.999226049872629
7.09762789545494 4.93296505622247 15.982193981545691
7.036322111316559 4.862083448589781 15.965219095520364
6.992767127000509 4.82109333575905 15.947696232557423
6.931605835560617 4.764138349088386 15.917307078197723
6.899438017683564 4.722483363283342 15.898749811106313
6.863621538702988 4.67629914918383 15.875812405804407
6.8151095939468025 4.6115356911759555 15.837698025211814
6.770016473823833 4.545623643079649 15.794922954134154
6.734452909528912 4.482754874978092 15.756300101984806
6.700292391962963 4.4199724598485 15.714802070044271
6.666797561944746 4.356797921653461 15.671269553449598
6.6151829732067515 4.295088085310027 15.606396995812663
6.5680502834373655 4.205518188185078 15.536233003284412
6.535448626231224 4.146751512038945 15.48618930886203
6.50038527976954 4.086783182794125 15.432698926914206
6.477400716510573 4.04597288193181 15.395315258254385
6.446489918771997 3.980122576013247 15.341365532679745
6.4212714046797235 3.925288270330593 15.296610571157728
6.402502689968569 3.871730590445495 15.258734366811897
6.381030718300892 3.8080174394503943 15.21455034188515
6.3629314442733556 3.7601495031664594 15.179788470528866
6.344960552116923 3.7129696893050164 15.145238527728136
6.325776646859879 3.6652299160107753 15.109307537974608
6.288572329123324 3.6034828648326704 15.046387627380298
6.262812129852072 3.5420179536418863 14.999210317239498
6.233643162304369 3.4648918472712444 14.945767829878388
6.215780246619949 3.4219250819322364 14.913781480810066
6.1892250031492395 3.363134131271408 14.868723887441362
6.159106276186348 3.304003534363551 14.818530338095918
6.130371469298088 3.2398349188978153 14.768863403178699
6.111009185459261 3.191248657330522 14.733927725113166
6.06943619155364 3.054271550764732 14.650916323669605
6.057996010451762 3.0005510122685233 14.62354481585443
6.047909349963328 2.9352768240886475 14.594991991241873
6.036628157720025 2.8521310375591455 14.555418165873316
6.035740336552174 2.784961951474432 14.534205900218055
6.03653730442594 2.6589592995014306 14.482806292085176
6.04174549036125 2.5867411169362966 14.446595694725655
6.046930882924002 2.5343849368385896 14.409335176494853
6.058803221408281 2.4860698475605054 14.363506948152637
6.074985374127383 2.4415563164324037 14.313460457389127
6.095102449043725 2.3912423580658744 14.264957782604093
6.115622293263687 2.34073739123342 14.221700099002117
6.138945795951369 2.284442862696466 14.171038708018386
6.165102306377085 2.2403058846071704 14.11417537903354
6.192353959662409 2.200535667942955 14.059432477625997
6.228276079658422 2.1652387312623094 13.994226184446507
6.263876930381427 2.121652654028878 13.934294636007593
6.30102491005421 2.0903737495218127 13.883644096119305
6.330271699189457 2.0659934322124083 13.848981837589943
6.362517137059446 2.0083860127290483 13.807574792372801
6.406852710792838 1.96367051541193 13.773137872034805
6.447230279562776 1.9271228791350032 13.752307444665075
6.485512234769288 1.847513775180762 13.742075602351498
6.499737261317423 1.7814102950454749 13.744126487934377
6.532201913172162 1.6982668086303376 13.75400145690206
6.563806619381995 1.627068540328875 13.769888202957087
6.590508484783695 1.5568763579513276 13.79159701542364
6.607488442669211 1.4967767724598278 13.81357631939526
6.62316130517385 1.4339651267148308 13.83829228013585
6.640219027427689 1.3705203688964054 13.866965354616703
6.654219567394747 1.3145455622206712 13.893964639996597
6.675273821857386 1.2313879744597132 13.935022149909962
6.692884937192624 1.1656932390998613 13.969826770530808
6.706637971396356 1.1157688598561797 13.995136252271848
6.747655297442815 1.0073151258407225 14.061730848079996
6.796601134649609 0.9271396045658524 14.120499442261064
6.831509049905257 0.8450659273748058 14.171750699463516
6.8634912506671615 0.7767532282093632 14.21564228773535
6.895779284210132 0.7139075369063153 14.259454952122073
6.937676336376659 0.638768554343764 14.316682198647353
6.979685526207351 0.5698697185551995 14.372588763225973
7.0190668355459644 0.5106575515658611 14.426534664462086
7.061766853215971 0.44684833720311046 14.484625045920097
7.090968734015645 0.40337669222530836 14.524838554391394
7.125065852324176 0.3580204762695627 14.570232667706946
7.160846454784157 0.31155448886089987 14.615992800812798
7.1993046912996865 0.26291574582546806 14.665389553994846
7.232664324877945 0.21972146407714943 14.707626179178561
7.254587217194661 0.18777020331874317 14.739469520784759
7.278683915680848 0.15475029587872235 14.772149487475044
7.305159144891942 0.12415866833264166 14.80244168247524
7.341202564543383 0.07642841984852966 14.852102235903374
7.381461247729992 0.024224266304278874 14.90574042154498
7.422908189641683 -0.037843021105117725 14.960937520535953
7.443732160437166 -0.07186784873554908 14.992523350583763
7.476321232923865 -0.1218371409354746 15.038382496272739
7.509918301795315 -0.17106583291258382 15.08291840509106
7.542928699532044 -0.21987606288087713 15.127556991759334
7.587326207830134 -0.28269606353407895 15.184896351816327
7.634938108269489 -0.3475474907154745 15.243858530295597
7.684226629428393 -0.40695938639925666 15.299187458830772
7.740036613807182 -0.4763998475718716 15.359381206032516
7.773329285097337 -0.5166707935412505 15.392476375483103
7.8113235974017154 -0.5625899238915042 15.430171431749745
7.840935232903676 -0.5989928211948299 15.457686031560872
7.889459235407902 -0.6631507062127837 15.499702046150087
7.9623899710618025 -0.7502640454384362 15.551888510741676
8.005318985480379 -0.824771179268057 15.582524689847038
8.049304865021158 -0.8856536251575879 15.605891421705923
8.080996416269588 -0.9432509861948861 15.619866337225169
8.126858478501843 -1.0007545661634007 15.635282230089864
8.176458295277579 -1.071332205150565 15.643950932828243
8.230750652342934 -1.1496035476449076 15.643452897188926
8.260383119899107 -1.1905053417277318 15.639187527053071
8.293089556596493 -1.234498659324553 15.630609636701276
8.336240795656241 -1.2839760319227649 15.61730272311802
8.380899882448432 -1.3169206007751586 15.606051922840052
8.43064389960851 -1.3520212598760462 15.591420912127688
8.49004297476245 -1.3884066582954735 15.574239453099384
8.552189048788787 -1.4144726684367113 15.558544266451811
8.615995981493642 -1.4353596678898772 15.54443963973674
8.690855563221197 -1.4482581106482075 15.525139005800614
8.749933779647314 -1.4551366736376266 15.50780394218014
8.804532044250955 -1.4635480060711488 15.484857474906185
8.859560360715605 -1.4731544564876282 15.460583192874275
8.90842503679675 -1.4803103230901318 15.436038270049178
8.98659685816142 -1.4870873161145437 15.396649417638343
9.095503500563623 -1.488169861909162 15.344792988431553
9.17182820266443 -1.4846008460993616 15.308056933790105
9.241841529984873 -1.48617660860638 15.268668791599517
9.325909137408068 -1.489128674345913 15.21925892923893
9.38709709125568 -1.4915139079282946 15.182923165059396
9.433947374891389 -1.4918711869385781 15.156471846847712
9.514599566572139 -1.4887018887394414 15.114043018246583
9.582037331092476 -1.4863283839595898 15.079775338437475
9.648948922256476 -1.4838522622290946 15.047417814743149
9.715179556292926 -1.4817251484814187 15.016656572246568
9.779659379137946 -1.4800744563998962 14.987493648450943
9.841996337143756 -1.4786879208191315 14.959639872030856
9.903286052335977 -1.4772388781691146 14.932255818371093
9.964262730646524 -1.4755455661955192 14.904825989417475
10.027540628228213 -1.4735561777405093 14.876147930655367
10.0919394025258 -1.4713964794826024 14.846757641834223
10.156869209302931 -1.4693883540538568 14.817112119714949
10.223511702824485 -1.4680156902741848 14.78701006339637
10.294716328707889 -1.4675598726338537 14.75496683493094
10.362872166635032 -1.465561508341528 14.728431716761005
10.46535175945664 -1.4747489473973032 14.6718917347843
10.54032405937513 -1.4737341555057686 14.637599032392973
10.61245464205908 -1.474686438944551 14.602294206371681
10.676450898244562 -1.474082693428794 14.57264118032765
10.745025346569415 -1.4795403453118365 14.534938238232424
10.819120958650046 -1.4830422541760448 14.496202398220937
10.851587403263707 -1.4850540867076902 14.479105761269718
10.90260956215428 -1.4882159537685036 14.452236494939495
10.954294331538074 -1.4872468834583294 14.427193543878786
11.009611111817701 -1.4830833216102413 14.40210756418628
11.063964679670159 -1.477452437701333 14.378843173391989
11.11422992903651 -1.4731441953683437 14.355999966221543
11.194422302580708 -1.4667357403876657 14.31799641309371
11.273032656561814 -1.4621627352128144 14.280696390844046
11.325271828867242 -1.460163374679929 14.255938903912988
11.39328847127575 -1.4575925180987426 14.223706617116026
11.461466592029124 -1.4588876410623435 14.188702237947734
11.517404459918415 -1.4597045656969692 14.156800236906076
11.577218153954295 -1.4523365389625535 14.12258384643938
11.648413645429477 -1.4416142752099916 14.071518019270783
11.682076159198436 -1.4486746237811219 14.031204489034007
11.711080850947587 -1.4615492983175984 13.98638715858677
11.750236976492413 -1.4611657408078775 13.939512799924223
11.796693154777117 -1.44985338927436 13.887067985083217
11.828079311845558 -1.4599280737760933 13.822580146532584
11.858117948002139 -1.4640169277941166 13.761732215146846
11.888560450551006 -1.4665493453337515 13.700473636516566
11.918313657707106 -1.4708850973994183 13.636771025690965
11.947866195953663 -1.4718293563718379 13.577288636778349
11.982308089526564 -1.4544822718490376 13.530605216011057
12.020326195437809 -1.4437369199552896 13.468343216926986
12.048695084074609 -1.4430033968620424 13.416843653885135
12.08496808354351 -1.4486452342683633 13.351823165238102
12.124521037972855 -1.4498676815202782 13.289142272939685
12.172798754752097 -1.4528666550968756 13.224255776635747
12.206865809782165 -1.4535333659628575 13.185301981330227
12.252929052599423 -1.455814680486737 13.139156496859488
12.303003740446691 -1.4585022585404293 13.094719965881787
12.366909059772441 -1.4604160918693974 13.043814260201714
12.427142991690577 -1.456243458017933 13.002362094827518
12.485773133376767 -1.4618193385950544 12.958378901078415
12.564501725748846 -1.4561579534523053 12.911379931135478
12.64754853718634 -1.457566759538254 12.866671283699365
12.728897898192544 -1.4495673238617424 12.8285450252429
12.798408314601849 -1.4399771617477874 12.801349168687167
12.852852305828247 -1.4315747528077383 12.78292045610024
12.905772212087651 -1.4237557757478823 12.767661901484605
13.07692141521536 -1.4194992144911538 12.734748585151141
13.141986153060648 -1.44776439412029 12.729021840565686
13.194400871402477 -1.4605186083765855 12.737828635696847
13.288925840376967 -1.4322036202564887 12.779724288651046
13.344392194934297 -1.4403311781324555 12.81000064910205
13.408288663023969 -1.4392983264301455 12.855005672574801
13.457158661657266 -1.4286727106272141 12.893851123591624
13.502869804353685 -1.417472765791627 12.936647844639541
13.541588062277867 -1.4165035524629226 12.97332487863861
13.590139250957302 -1.415737021583944 13.02200166814318
13.648912917535197 -1.4027267880351193 13.08667914754367
13.699076656066538 -1.3890715815975847 13.150313508635506
13.741607508119332 -1.3804302945690434 13.212811388302079
13.778633880662772 -1.3741110930926208 13.276041657152465
13.820822114077748 -1.382090492873194 13.357025829402328
13.851762023346142 -1.3834433140536238 13.420093887580475
13.87392514170624 -1.3888464006376449 13.489638519543824
13.913005803731155 -1.4040803006740719 13.58463600466649
13.93912505674899 -1.3585084869832378 13.632525506489166
13.943812451962172 -1.2961460600012402 13.642804566414593
13.953593068577781 -1.224086833217687 13.641872777641979
13.930758664958523 -1.170053013399503 13.626831101597503
13.912027425945231 -1.1278027969062587 13.664154034785344
13.909729455458555 -1.0713669476624883 13.657799751072545
13.88903666387919 -1.0138095813288994 13.648829689335702
13.872350986289192 -0.9542365624406308 13.631161307870943
