530
-17.343289462299442 -18.143145290013777 -1.933344594094092
-17.385303848135884 -18.154814432686294 -1.9910946253014599
-17.419782228008373 -18.162581744083 -2.0376442894543976
-17.47205266196798 -18.171697202473275 -2.1043350148262734
-17.520236140176216 -18.180774070646642 -2.1593546648767594
-17.56158961336093 -18.189424409240225 -2.2001552705632426
-17.62060095512853 -18.196239385614938 -2.257626737433429
-17.676461398204395 -18.200328212760937 -2.305997621402633
-17.725242287077013 -18.19586607598935 -2.349697165899637
-17.7908402092389 -18.181445205811894 -2.406290695971097
-17.833310792333087 -18.168605276256365 -2.440951713684785
-17.88725477356342 -18.144785649101703 -2.4848472461445885
-17.933581570505424 -18.12714587280253 -2.518042006341907
-17.99144336603857 -18.1117329111483 -2.5530271800519957
-18.035159713067394 -18.085020689771312 -2.5862343108618555
-18.1003512272975 -18.05941700145675 -2.6273430937432716
-18.144239852754524 -18.03672030069941 -2.6573640346379888
-18.21163095039399 -18.00035508213209 -2.7041654735711314
-18.264471944202015 -17.971666296915245 -2.742696747358006
-18.32448568961027 -17.952222354679208 -2.7786106255869525
-18.369109811710565 -17.91018709780016 -2.82268054170613
-18.41850492232546 -17.883502166623476 -2.8595420001693546
-18.477917139034336 -17.8630891643222 -2.90085194244429
-18.52629327762696 -17.847689571613213 -2.9333280871588654
-18.576779349732973 -17.829443897899246 -2.968331993975819
-18.647841173684856 -17.78194468711729 -3.0284679914913513
-18.74264807822121 -17.755603332400796 -3.089021958230716
-18.788461572410416 -17.735630472810822 -3.1211924589247166
-18.84438943113257 -17.714630370935975 -3.158664603241152
-18.90505182773686 -17.687235620906947 -3.20063810802979
-18.987476211746994 -17.648694525191818 -3.2576095704128525
-19.04031167042927 -17.632140617574805 -3.288443695138265
-19.08479347784755 -17.620316073329718 -3.313601710514063
-19.153727447023478 -17.59062115367371 -3.3553620689141814
-19.210139230162824 -17.568881148652558 -3.3882419809196067
-19.263566610872992 -17.555356297894257 -3.414799245152362
-19.316321932332574 -17.541741260137332 -3.4399362694647033
-19.379504152053464 -17.52279626491158 -3.468817096961593
-19.45212641972494 -17.51192810633882 -3.4981403779157096
-19.53474966692974 -17.49303104250877 -3.530317694377641
-19.617381382979683 -17.467197546923487 -3.5634123387975327
-19.689335000796465 -17.450090797544753 -3.5879446219364057
-19.758671708600055 -17.403857723061684 -3.622364948557663
-19.805571456901937 -17.388655234825514 -3.63734210156255
-19.857264768234444 -17.378838108661313 -3.6495649409856226
-19.946239843218468 -17.359268815660215 -3.6689145212446013
-20.006059640393307 -17.344202473791206 -3.681268706762304
-20.085158425857642 -17.318413211471118 -3.695675199179507
-20.14299022486392 -17.296727758375365 -3.7078950957319377
-20.19738020998656 -17.27432096451404 -3.717415939831416
-20.25372878497808 -17.253007340453102 -3.7254107252196116
-20.31185491684333 -17.23223564165701 -3.732256284299388
-20.36924408921663 -17.20943003204316 -3.7384455402793497
-20.43502221334702 -17.179256573651955 -3.74636125298263
-20.516184508669603 -17.13564012018496 -3.756761680529393
-20.59237153786276 -17.09791241305246 -3.763866437832756
-20.67602679686436 -17.064802135132144 -3.768263133940537
-20.74441461917484 -17.03760309273683 -3.7697148063078876
-20.82129102867174 -17.007257806588406 -3.7710651773883255
-20.879858403657412 -16.990527875626366 -3.7689701347082414
-20.94884532466849 -16.973661512268933 -3.7646511147959894
-21.016343716805512 -16.951768187045605 -3.762182735768106
-21.10503785124918 -16.916035378631598 -3.760471981700719
-21.19872527886209 -16.878067044618867 -3.757678090066457
-21.263945410604023 -16.861903409840274 -3.751078973062847
-21.33421185222467 -16.844193575569165 -3.7432186491978916
-21.403923141370562 -16.826737308272698 -3.7353658578543962
-21.47163120620873 -16.807931809515203 -3.727625139917632
-21.527618266580298 -16.794499423026814 -3.7200771130919597
-21.596521675154815 -16.780116467742555 -3.7094339114360464
-21.65239408164034 -16.769943369796287 -3.6995949839495905
-21.725270179580807 -16.757352367283843 -3.686008559061446
-21.800549694644765 -16.749504718389257 -3.669064460484015
-21.869939954928213 -16.739754804600757 -3.654123483217643
-21.937834670967177 -16.726799805552105 -3.6403964650440974
-22.00411523295326 -16.71291664879706 -3.6269466798205388
-22.071678129468374 -16.701450543930427 -3.61210533429887
-22.13776486117746 -16.69055567888112 -3.596681099011721
-22.202629062948397 -16.67931776661737 -3.5815400515412614
-22.26659417332157 -16.668138185408317 -3.5665413567141178
-22.330102417512933 -16.657081740130863 -3.5505796395700484
-22.39229924990206 -16.6461154692555 -3.5350905183796746
-22.453481597861817 -16.635127459161893 -3.519847113143274
-22.513159478868378 -16.623820205927196 -3.5048011725449575
-22.57177658632788 -16.612511314760624 -3.490090906362645
-22.634211136003483 -16.600035206196786 -3.474302383291234
-22.72028854008826 -16.583191894238407 -3.4517727600461905
-22.769642149784673 -16.57462926870388 -3.4376901176318198
-22.834267406330603 -16.563179050145337 -3.418869760383452
-22.937212344133954 -16.54097339999204 -3.3898099375492494
-23.00584333387687 -16.525270001272474 -3.3701540265446868
-23.071313448037635 -16.511022312344288 -3.350079457608465
-23.13693678603659 -16.500331668586085 -3.3275644066637886
-23.183528525248146 -16.493975706604132 -3.310445117609187
-23.24554266250076 -16.48850651201124 -3.285735568159125
-23.342512357008758 -16.46808590070485 -3.2518425794712256
-23.39380276317743 -16.45806809424031 -3.232820388502531
-23.456938283680326 -16.451579536372286 -3.205852333132257
-23.519863899689817 -16.44344613898967 -3.1792088332382624
-23.582063232392095 -16.438478071372707 -3.1505167834066574
-23.64373545619552 -16.43602561911548 -3.1205271593814876
-23.73667421979001 -16.437527433666446 -3.0714859157216727
-23.832566324600016 -16.45290365548148 -3.0124238929257166
-23.88067101430756 -16.461079854832178 -2.982426174956678
-23.937177646232854 -16.472859187011412 -2.944645900414552
-23.993641292619966 -16.4823005558245 -2.907882950490918
-24.05266091290214 -16.486057606173908 -2.8714552828374584
-24.109165959133772 -16.486730611718514 -2.837871791120068
-24.164907234960832 -16.486368332990857 -2.8039717402851663
-24.221784542180956 -16.490248868096888 -2.767347003919091
-24.28299040523551 -16.4961920202647 -2.7258368452458557
-24.32949322409622 -16.50424627492606 -2.692374018363764
-24.380274328703916 -16.513836433295143 -2.654661225156569
-24.436247744622207 -16.51899407332483 -2.6150699901801415
-24.491873107060275 -16.529036163173103 -2.57262845283737
-24.536350030559337 -16.54199522261319 -2.5358825899179562
-24.587968067765175 -16.557145726336557 -2.4921661749524793
-24.63781357699326 -16.56950104759801 -2.450702253093758
-24.686884596061933 -16.585105306961403 -2.407496069833969
-24.73505271526466 -16.604007691591974 -2.362709634655835
-24.784268552561503 -16.6200955910937 -2.3179422235174476
-24.825009477975918 -16.632387994816057 -2.2808282137110387
-24.884704411098397 -16.645137300408933 -2.2279266182382527
-24.935317114932257 -16.65592310839903 -2.182332947055424
-24.98305688736272 -16.66840218088314 -2.137320115741246
-25.049827842951537 -16.69093496413523 -2.0711421796079046
-25.11889704689461 -16.715565784423866 -2.001227338738098
-25.160107817340073 -16.73517534225533 -1.9549879127404273
-25.20543738374859 -16.757703884933328 -1.903682927478168
-25.253682563362105 -16.781929042969583 -1.8487460477568147
-25.325107352446377 -16.804933456096812 -1.7712977524851796
-25.356667108674408 -16.81774217040662 -1.7344554403663883
-25.392080803055293 -16.83256188009843 -1.6930622947424459
-25.43703686540595 -16.855016435156692 -1.6388689254012858
-25.487007197573554 -16.87701654690734 -1.578111513183539
-25.518675897779627 -16.90264038895798 -1.5328785109790877
-25.576565529058254 -16.928225992444887 -1.459265263184629
-25.616158999584343 -16.94770443776542 -1.406939426963267
-25.649467944213228 -16.962115928326163 -1.3617703444468132
-25.693509788233918 -16.981695967063615 -1.3033257464126313
-25.73058073975423 -17.0002384424306 -1.2515083857636151
-25.76823483144019 -17.009816172523475 -1.2012090343481594
-25.805267728545946 -17.017235260569855 -1.1510664053991517
-25.842072140083825 -17.032043357079235 -1.0972366453986302
-25.872773438826922 -17.04494756451959 -1.0508113713551506
-25.904909400747556 -17.056442931871537 -1.0015937982930625
-25.936212351965914 -17.06604313293881 -0.9530071223573948
-25.970791858739837 -17.078810553346266 -0.8969564096374292
-26.015995704478847 -17.104207443182656 -0.8167357705594194
-26.069917928544868 -17.122043705131595 -0.7207348633680031
-26.09753621619282 -17.13396663275335 -0.6679784809652709
-26.13955652985507 -17.151076247314062 -0.5868162729701822
-26.1632382459843 -17.15594255908791 -0.5400010773650665
-26.189645949898686 -17.1652755506987 -0.4843031132878508
-26.221281775938493 -17.18358576703305 -0.41324227120349466
-26.24804979139202 -17.18974655333146 -0.34893190438579413
-26.272564841267478 -17.195378081395184 -0.2876201240794618
-26.299110039938007 -17.196630535317645 -0.22240463113173714
-26.322012541995043 -17.199411286599577 -0.15943269049498543
-26.34303105189447 -17.20742357877375 -0.09556156216149958
-26.361117438468078 -17.21322387413711 -0.0334409858513629
-26.37543407537286 -17.219771159042462 0.02107414125611573
-26.392130127600435 -17.232781790852705 0.09228178869499448
-26.406023022089904 -17.24078570878244 0.15911312092257468
-26.420353227960764 -17.23997517027189 0.23135487170760172
-26.435613825801866 -17.24424405415273 0.33681165335954777
-26.442340920655607 -17.245954721800455 0.39788340289717006
-26.447205101746558 -17.246064281462324 0.46041222141271554
-26.450743034180135 -17.24520273636027 0.522556333262461
-26.452639333144198 -17.240443921899278 0.5943163006165255
-26.45252014052073 -17.234733012756028 0.6482734501011613
-26.446651200943396 -17.223136908289863 0.7275117033834384
-26.44097380411837 -17.2194132879738 0.7771451587036395
-26.433896100673756 -17.216465097946475 0.8215727136986315
-26.427643164416597 -17.215381402613176 0.8529960382232984
-26.407961930223195 -17.21885622664651 0.9319459704751916
-26.390682525280393 -17.209629185495828 0.9964376822404191
-26.368667602021834 -17.200923704379427 1.066937914534087
-26.33200223330838 -17.199849436386458 1.1693748837538358
-26.302574360955088 -17.187153973213896 1.2436942687508044
-26.271039672783658 -17.183047620009475 1.3183922625547257
-26.248198202778568 -17.1744394689172 1.3724081292878312
-26.21552993988806 -17.162646451153016 1.4464955685286371
-26.175675423834445 -17.155430654312248 1.5326298334197217
-26.148049603470252 -17.15142566942264 1.5903540837812624
-26.117795557515283 -17.14077787412693 1.6560603133093954
-26.096136874866648 -17.130943974728932 1.7026701057626532
-26.058640991312682 -17.102514762051413 1.7893945426634277
-26.031137044691423 -17.072000203976202 1.858544404360826
-25.988588303329255 -17.048969467097493 1.9617035001982073
-25.9612234710656 -17.017827255899256 2.0426376364586956
-25.93697664391982 -16.98485145638873 2.125120795161683
-25.916271146578513 -16.965994507151322 2.1940596124661518
-25.892613652520737 -16.95675225910662 2.264890208146366
-25.86966030353139 -16.95373980198243 2.328810225806339
-25.839069950361896 -16.964331589997173 2.4077154282110245
-25.815288180403833 -16.952411405713868 2.474406781335823
-25.796432788352558 -16.94865263079411 2.527269057270634
-25.780966069754673 -16.92631990148049 2.582223048362434
-25.764527428413082 -16.911170472702103 2.6411618836571478
-25.740970062065387 -16.89593914015134 2.734848061600352
-25.721821411770325 -16.881304108323825 2.8364393349242194
-25.713237688452473 -16.8776782607883 2.8967867278741037
-25.709776376371067 -16.868859049637866 2.9586807901159995
-25.710317002591605 -16.85532348060557 3.029886313309773
-25.712420277328107 -16.85227059712622 3.10206519298886
-25.724434478999434 -16.84093426389429 3.169572565084753
-25.744551177684944 -16.84139645775837 3.258904311887851
-25.76080947788244 -16.839377264956745 3.308505327463748
-25.78279094648288 -16.8290447802068 3.3575105871807187
-25.811354508575665 -16.808840848442493 3.4117205004414313
-25.840059337129865 -16.79356890415058 3.466530109270897
-25.865887481347734 -16.78298820392588 3.5172582233451255
-25.8979660352125 -16.767313252456223 3.5801459153438566
-25.926308346467806 -16.75744063163508 3.6391533848802977
-25.952706791639777 -16.75118872446261 3.7012614739896286
-25.991654248001073 -16.737834461747607 3.803477489537692
-26.019480502409674 -16.742137932152893 3.902785423148541
-26.031883139764474 -16.744662078808616 3.9568908147487685
-26.04147114278608 -16.746575867194274 4.009415621271244
-26.05030729720452 -16.746773110275615 4.064427030648365
-26.058246416246327 -16.745670549589477 4.133477794510429
-26.063901516245018 -16.745715612573157 4.187713919317092
-26.069699831949446 -16.74888258578653 4.264326590753683
-26.07428429355313 -16.752649455534716 4.3251654117774345
-26.07862545146495 -16.756225807864865 4.38906644371582
-26.082347901594517 -16.760449017717523 4.45532930553637
-26.086324261600414 -16.76603085795182 4.523461284242067
-26.089892270478483 -16.769789767448923 4.593163318373252
-26.094000205720505 -16.77139989877974 4.669955078053349
-26.097591374193318 -16.76910550840971 4.738668285752741
-26.10036124096567 -16.76636348205671 4.79296665352486
-26.10361937058383 -16.771886462889682 4.913883271878186
-26.105284721001944 -16.7732114269118 4.988937895640722
-26.10639276288847 -16.772162783951785 5.055976913822094
-26.10813756705882 -16.766227712435615 5.168266437405846
-26.107783482902786 -16.763852890385195 5.266797276802581
-26.10627460526094 -16.764215739612926 5.341119063193731
-26.103429134311373 -16.76776021390946 5.414093915358412
-26.099767120082408 -16.77102102472527 5.4858987628547
-26.095212214540236 -16.772280923604143 5.556360218464904
-26.089678546946175 -16.774690603720984 5.624915375182239
-26.082971979171617 -16.778048889861395 5.6903490376693995
-26.07502583825175 -16.781115442336535 5.75409906049348
-26.066181608122598 -16.782247067702286 5.815186621458096
-26.056394475060852 -16.782222719779533 5.873220315088369
-26.046459470365527 -16.781851143184387 5.9223124359154555
-26.034145334346565 -16.781276745644778 5.974051136824718
-26.017332883620117 -16.779833258932698 6.0322676781099736
-25.995858442556646 -16.777789032197724 6.094955652814536
-25.97666355091341 -16.7752491482673 6.145915874507747
-25.94658792574186 -16.77178108202459 6.21206472756949
-25.911509844458454 -16.76886426806883 6.2806935396551875
-25.87500838305874 -16.76685014665088 6.340644947890576
-25.81986752933458 -16.76294789166862 6.413938197061765
-25.750452327875536 -16.764175351030133 6.486899750522593
-25.688501806285856 -16.772705999918855 6.5370459205569835
-25.621557511847314 -16.78235653575908 6.580813785723635
-25.567934552068234 -16.778046748226966 6.610342586781824
-25.513108348145757 -16.76455036340423 6.635336099087059
-25.449900023370155 -16.745168968460675 6.659384707576335
-25.408717580114768 -16.717803061005007 6.670749085048444
-25.366609985137345 -16.684828833783055 6.6798361196122436
-25.322167589334036 -16.646909034304684 6.686665965541057
-25.265474184737712 -16.599874361954257 6.6931902193577155
-25.17552381272466 -16.52772325341634 6.698592723318123
-25.109475849243378 -16.472486967348207 6.697046359798747
-25.060854455187325 -16.428139255380113 6.691298394716012
-24.99153223007601 -16.37885451816019 6.6830219730198595
-24.926956020246216 -16.327886196169775 6.671608813949859
-24.857402039297934 -16.2618922214814 6.655111560622039
-24.801439502877777 -16.204033609554727 6.639544780438911
-24.760817631116165 -16.169791476714273 6.628420469612345
-24.70310586512121 -16.120724578943722 6.611730333686889
-24.657636612938642 -16.081877859983308 6.597972229548969
-24.604374683532402 -16.03792111401753 6.581046448022991
-24.531918496856647 -15.976874578959853 6.556324448919235
-24.441147226071873 -15.882189695664918 6.522717630629301
-24.392795572505197 -15.83686205605429 6.505150392057125
-24.35398759615295 -15.79470001732759 6.490018391934088
-24.31208508675595 -15.752518165385156 6.473937420735376
-24.250654614185006 -15.696620695989598 6.450082865466052
-24.211525372467946 -15.660371046047667 6.435018519291296
-24.17415273598774 -15.627268814242361 6.420166413782504
-24.129355256603624 -15.571298264955892 6.402244515639095
-24.08851339250421 -15.511385865824414 6.3858486541245
-24.04878362281766 -15.464302228290533 6.370521844943044
-24.017898678404734 -15.423326301315184 6.358135526473901
-23.987501804654254 -15.382761874568427 6.347156282335982
-23.945347819845313 -15.32720134523032 6.331858042945001
-23.896568569246238 -15.268311261312162 6.314831309234929
-23.85995239731581 -15.227221626586777 6.302403949840269
-23.802276785000686 -15.171972926088591 6.283724742735997
-23.75750079141841 -15.130370277852665 6.269000297796861
-23.71270541369333 -15.08930477247792 6.2553595589883555
-23.668159871635925 -15.04393879651707 6.243421609047325
-23.627252340118485 -14.999793944640418 6.234051599606427
-23.578273735844608 -14.949250853445355 6.223870116639776
-23.5419557664932 -14.910389239528415 6.217387388168987
-23.50071174509855 -14.86492922495254 6.21032321213775
-23.46178412944695 -14.828761670125047 6.202845864184151
-23.424151045513486 -14.793043049971319 6.19568741537691
-23.372543899045464 -14.74429724315536 6.1865172482022315
-23.308328863682174 -14.706000906640513 6.172541913554656
-23.256384408133087 -14.662504173288273 6.163908463589644
-23.205394549785233 -14.618909131301548 6.156067166051174
-23.154837581871593 -14.57865401032007 6.148741991820265
-23.086108265329425 -14.528536083536514 6.139225003567093
-23.039073890326833 -14.493709325073347 6.133526452224742
-22.97763098842176 -14.449600247033123 6.127231272135891
-22.92683414194699 -14.41808393175008 6.121340839126411
-22.873035314441353 -14.391043737270737 6.115510870126697
-22.819769042989744 -14.362823089484761 6.1102531482721
-22.766887322706037 -14.336642449509458 6.105676065716685
-22.700958289196056 -14.308497081644251 6.100417251355159
-22.642315962121113 -14.2835138695212 6.0959504665249735
-22.575837338138356 -14.252005793405717 6.091841318347474
-22.503736619502465 -14.206948624971352 6.088982908965796
-22.427125897998668 -14.153014077713868 6.087047774775861
-22.336808232730487 -14.112963906572759 6.083870163279701
-22.26734278403191 -14.089803785839818 6.082147881621833
-22.19402695655514 -14.074830478908739 6.08040054268898
-22.140219232794287 -14.061293575618558 6.079922556162566
-22.08581581544159 -14.040906267921214 6.080442108492925
-22.026787742344965 -14.010821653713977 6.081974770821923
-21.976731565646162 -13.98654105835692 6.083218187744397
-21.908359209557382 -13.963854591943523 6.084341409972693
-21.841116080595217 -13.94442036168337 6.084891167323777
-21.779541186438983 -13.931803253577968 6.085813932411264
-21.720485591608075 -13.924332000964098 6.085767368697347
-21.652842899882494 -13.926170952191377 6.086020013368313
-21.59377056464973 -13.92174526791433 6.086462002419301
-21.509832609718448 -13.919348449941184 6.0866617031767145
-21.434133250570916 -13.908644435925991 6.0868812337367615
-21.372912903872127 -13.894682975368296 6.086871407774446
-21.297617968525792 -13.876285761782718 6.086472049007025
-21.242340748779867 -13.86464112801923 6.085756174650814
-21.187920630673485 -13.857222827226806 6.085163580204534
-21.10986030556112 -13.844419761479944 6.082945843330306
-21.02463357704888 -13.815796776339727 6.07950079974686
-20.974931417807074 -13.80314754451945 6.0773635751439645
-20.914466703340256 -13.788582928559533 6.074941198471581
-20.83178803139149 -13.778642483200754 6.070409712426342
-20.76902697634853 -13.771423165005267 6.0671576305224875
-20.698100557535785 -13.761583568658267 6.063160950891883
-20.619291093279777 -13.742638907164805 6.058232558516599
-20.5163303250908 -13.729772061112287 6.05264295534743
-20.452763251993808 -13.72199622122656 6.049052133561138
-20.35987325070662 -13.708482174352454 6.043241164682571
-20.287484650966682 -13.69704361214884 6.0387456798587085
-20.211267856186545 -13.685046756654655 6.034003537973217
-20.16084226734443 -13.679027214060085 6.030898109654711
-20.10980506350033 -13.674696577477834 6.028021420497621
-20.058698965032796 -13.670590548004878 6.025315155545964
-20.007231710869263 -13.668746844717255 6.022536491172938
-19.954680580787105 -13.668328136131798 6.020015064564005
-19.847882255409118 -13.664072154864881 6.014502442396479
-19.772141539017856 -13.646793533216446 6.008742904117364
-19.720052013277034 -13.630501318894867 6.004252587567325
-19.632524859136655 -13.613680973764268 5.997522879375021
-19.56932234888437 -13.592163293494846 5.991272249773143
-19.47092446951942 -13.532767327463862 5.976972906176072
-19.39662863962705 -13.48623750264007 5.965456794624577
-19.348037626463757 -13.443871805688987 5.955198988698655
-19.2742761283299 -13.393767908389124 5.941869916379861
-19.216241358063495 -13.325691457453875 5.924435329329292
-19.160439326418118 -13.25399121477214 5.903925842243113
-19.13249200397216 -13.191978538027334 5.875652616799326
-19.110431525888092 -13.13744360441713 5.846724457670772
-19.082757586947466 -13.092450067785284 5.818719899447539
-19.031150731009756 -13.1025689347942 5.822223111593121
-18.961423464728973 -13.118752902687206 5.825617658436129
-18.851832437585518 -13.117145892961226 5.804216362989493
-18.773238254696007 -13.105232261015637 5.775421651266281
-18.696229178902893 -13.074247865839341 5.725624926580597
-18.563614913467713 -13.098368515855194 5.696260518450308
-18.468694906025338 -13.09934413647039 5.672952019155475
-18.414744038694856 -13.135727761742631 5.6860275570836185
-18.333673423649397 -13.131681800554894 5.661935169655913
-18.294014969134654 -13.106092010797365 5.630895514572466
-18.20733337887466 -13.110907003764384 5.6433863560748145
-18.115282731835762 -13.103426575337926 5.62314254845816
-18.091828959792476 -13.151729321619063 5.638954674840717
-18.016865646298687 -13.243230993238642 5.658396604408482
-17.98664459484303 -13.31034334744374 5.675403715456883
-17.931675927384152 -13.382768098325677 5.681329997659881
-17.8857853676608 -13.434139127102332 5.6803242899036
-17.852560243706247 -13.490047314482856 5.696758328348076
-17.786927613620076 -13.577073047435704 5.706432510698838
-17.7269839748623 -13.621850417676164 5.694680277180814
-17.652195570346667 -13.677827141020709 5.678077807576324
-17.59595480447291 -13.716531671033023 5.663529404830366
-17.508410647105908 -13.748977715562402 5.623825671649105
-17.44486336880074 -13.757262420838975 5.587815906223956
-17.39430895649634 -13.761944204429971 5.559114492453235
-17.3364407743355 -13.771181659902386 5.5281177501982235
-17.257622602788285 -13.805324563576688 5.493139115799237
-17.21406222792029 -13.824141085239502 5.4743552438007015
-17.165947773932313 -13.845472740932713 5.451279417151847
-17.099396701425178 -13.855366319239751 5.414622083563319
-17.028392288861227 -13.877917815698025 5.379200325325787
-16.97706311934998 -13.906659655909303 5.3562551015271636
-16.8901140559009 -13.966487390206106 5.317978841105626
-16.822233625364426 -14.034217022406063 5.289397365539188
-16.78073860162874 -14.076309588561523 5.268995406537423
-16.73979388900258 -14.114676409201447 5.246221671604806
-16.700459445082608 -14.156162628802985 5.222137685674671
-16.659665757919534 -14.210280794382847 5.195509608647571
-16.629167217527957 -14.25490135582772 5.17327533744372
-16.593285203422194 -14.302997859347812 5.1440742470114165
-16.561955279349295 -14.36177384003814 5.115455281066657
-16.513054285199186 -14.438015484385364 5.067135217038867
-16.48133009504992 -14.503495795142232 5.027474214276543
-16.463847473566425 -14.547484704171444 5.003551209299524
-16.443830043647413 -14.602741668258858 4.972578100097007
-16.415756885676778 -14.672608842779743 4.928352705047588
-16.391908548532378 -14.74651826592898 4.883512729484512
-16.373861324759343 -14.800368301441877 4.8483167041286475
-16.354731201598266 -14.857515942662259 4.809388294568096
-16.341142719749328 -14.910079209905854 4.776731518081667
-16.327050524382017 -14.957112682746502 4.744648659338474
-16.304497585931394 -15.0159761197032 4.697705175125043
-16.28839265312939 -15.067177698619544 4.6604122075213725
-16.273312368306932 -15.115679854182657 4.625542004338699
-16.25805428329715 -15.16283541594227 4.591066205845314
-16.238729603432343 -15.228988750281287 4.544929296981949
-16.216206404241944 -15.314903955639407 4.485725132035882
-16.20285679067979 -15.382577697335769 4.439417392049395
-16.19499548033848 -15.425622561092387 4.40986401350519
-16.18275245568687 -15.47932261851896 4.368110072201734
-16.170473116112703 -15.526497305092041 4.327092197658752
-16.15889631458429 -15.571719235871472 4.285230233253268
-16.148205799432354 -15.619087113952334 4.240571822516229
-16.13874847537042 -15.666770832763703 4.19347015244044
-16.130120429457584 -15.715003314890634 4.1427358941149945
-16.122633977575582 -15.764150154491192 4.089167763207266
-16.116743304671633 -15.804545888602842 4.042154634614883
-16.10568954374812 -15.86133765742637 3.9668966213938965
-16.09807565788415 -15.904726869791693 3.9062650281690043
-16.08606438484556 -15.947758102285848 3.8447224885825344
-16.079193048816812 -15.988652413929954 3.7824678989725236
-16.075144417073744 -16.0331388797756 3.7121903276435306
-16.075641480741748 -16.07516485153847 3.641596607045292
-16.075148110422568 -16.114628499189394 3.5800375564602973
-16.075335558837796 -16.158028965160867 3.5117477045699603
-16.07642208181023 -16.19257801901429 3.4565231086402006
-16.078064692028217 -16.228320430019544 3.399971797029788
-16.07747757126107 -16.27322236999199 3.3221018935157005
-16.075412215221025 -16.312258188383808 3.249363064452395
-16.07111003348118 -16.34831486671215 3.1775985106774582
-16.071258443512075 -16.382485231188966 3.1154003668750034
-16.07266752253741 -16.417385273080527 3.0530884686260746
-16.073212952919096 -16.460382926714523 2.972548456529098
-16.07322547950379 -16.484849176093043 2.92537490335687
-16.074010366935056 -16.51856148274177 2.861062066362706
-16.075619749348526 -16.552509267804574 2.7968028883326808
-16.07792631437324 -16.586767783687268 2.7327668187852936
-16.079868812389154 -16.61983420487669 2.6689695123268047
-16.08150819472549 -16.65360968912806 2.602903147922002
-16.086638794403534 -16.700742141583774 2.5132902481767703
-16.085405199638416 -16.736761754249848 2.433905525710867
-16.087799992615228 -16.769006819698006 2.3699158580576443
-16.092857841469268 -16.80186440366654 2.30863997328495
-16.093210012158373 -16.830095226944266 2.246706505080126
-16.094610108244208 -16.85856801796104 2.1855214544929167
-16.097327949513627 -16.88729336726555 2.125844721339817
-16.09952551063572 -16.91462819768867 2.067274567640827
-16.10293151344801 -16.94223263449038 2.0103317212958416
-16.107509035506837 -16.971440808649362 1.9509549916578823
-16.111886120820873 -17.005326372084184 1.8826637633235483
-16.11843024085987 -17.035016229857114 1.8264210946092359
-16.125459026292987 -17.06932776340192 1.7613739316269683
-16.13402971634931 -17.111712164338233 1.680689272402101
-16.143861247748667 -17.148737846537443 1.617385097258854
-16.156032409088553 -17.18717213269224 1.5548196711362143
-16.171264175366105 -17.231237996187918 1.4843205027320456
-16.179885564092093 -17.261818144290643 1.4292863510233857
-16.187386814723215 -17.289953747985727 1.3737177818110409
-16.197307877150408 -17.32087115938218 1.319564873498531
-16.208848971881807 -17.351641337567138 1.2657839957348065
-16.219991231961167 -17.38098574026079 1.211599034390403
-16.231126601122494 -17.409487697004877 1.1566336424228858
-16.243268854712806 -17.437924318657572 1.10145523115379
-16.255881653689194 -17.46567540187187 1.0456446960901076
-16.270064719097398 -17.493577497439688 0.9895758841757676
-16.28473211778677 -17.521006851159832 0.932557827072598
-16.299236367784694 -17.547174707590468 0.8740971600876914
-16.314606426051892 -17.572736980936618 0.8144197852280399
-16.330140922557096 -17.59734970347123 0.7533257213295474
-16.344331265202932 -17.61836649702377 0.699895241783806
-16.384326103058996 -17.666406174919985 0.5959770022552018
-16.399673248124127 -17.6901338867971 0.5298332323075803
-16.42256385683607 -17.715789208284647 0.45624915570577596
-16.446250266331596 -17.737636068915215 0.38148948767759805
-16.463716985287988 -17.75319802764706 0.32006102889588117
-16.48014977665569 -17.765296810260807 0.25944334911906886
-16.4880690869399 -17.77220590605361 0.20624215977326799
-16.49377611397682 -17.776553857141923 0.14087320947489257
-16.497778773702247 -17.77775424184149 0.07318830140413723
-16.50157416555463 -17.778503101252788 0.0031371355539624446
-16.50515976433797 -17.778336696732445 -0.0554993408739719
-16.518650008674463 -17.784225245552232 -0.13739104185189088
-16.527149212050006 -17.78505855591137 -0.20421617076733867
-16.53118516377198 -17.78307030424336 -0.2605830029528642
-16.538349409112516 -17.78053713476305 -0.3370663384030106
-16.545108630906498 -17.77641819090794 -0.4136989888579299
-16.551238437833174 -17.774411292366985 -0.46503990007639473
-16.56197503402014 -17.77426301555134 -0.5316355353631144
-16.592428141350894 -17.78536213443204 -0.6212812931264393
-16.63124441581761 -17.80730202131287 -0.700064152361902
-16.654271868662004 -17.820335564723866 -0.7437158099109871
-16.680813332814775 -17.83702995711142 -0.7853781713902288
-16.724608930574117 -17.86642246290277 -0.8456590785134788
-16.776091199563414 -17.899862165798666 -0.9210808529195464
-16.82075650439076 -17.92305561572517 -1.0104865171783022
-16.85121926810961 -17.94041230040009 -1.063639563861737
-16.89169352891168 -17.96211052806253 -1.1379851127655618
-16.91725306452512 -17.973286268119903 -1.193653293827352
-16.94618310613224 -17.984727314496784 -1.2575179571589308
-16.975915822706472 -17.995335878168124 -1.3205647253030248
-17.006339076315495 -18.009708811490736 -1.381708812252124
-17.038041111958655 -18.024795742023088 -1.4358655247573013
-17.068220713404273 -18.036181183228145 -1.4955884571527411
-17.103816000233902 -18.052168136328923 -1.5570362170262753
-17.137752910763968 -18.06860447409219 -1.6104660022174704
-17.16947737468337 -18.083118114874758 -1.6624072405248098
-17.200537702039664 -18.093487845401278 -1.7163707694926211
-17.240112371473774 -18.105244778438266 -1.7859155774743565
-17.281076158803224 -18.11865593344035 -1.8507181103826182
-17.3127165451585 -18.13174111238999 -1.893128458995963
