485
-23.62207963304373 0.6555212452799573 -8.700174262120175
-23.684417171161673 0.6652503931502376 -8.693476842956361
-23.76107636401303 0.6697855801914063 -8.688532966738327
-23.859937439105856 0.6567761713374056 -8.689120305504076
-23.92819232904433 0.6801277449952137 -8.691778917897711
-23.99485646586082 0.7555824333408692 -8.694586095768795
-24.037109894916075 0.8336951751588506 -8.695713783976274
-24.0848783155375 0.8852262211932618 -8.702560309585019
-24.151523519659854 0.9644359502536388 -8.71193774069267
-24.214143002052506 1.018094318187912 -8.724577327789767
-24.299307314263004 1.0793322903169802 -8.745308784052817
-24.342722011596752 1.116852664204989 -8.757033143866995
-24.414802764543733 1.1841599221818517 -8.778306365738516
-24.492766462789742 1.2404675867135189 -8.803824214302944
-24.563259942716396 1.280984725978975 -8.829168548973563
-24.6394094964363 1.328311149472281 -8.856847283972062
-24.683580039349884 1.3631793142641668 -8.873496554172725
-24.72917699482255 1.407637257038854 -8.892593777394328
-24.774003456658455 1.4542459609520655 -8.9124235605468
-24.816855547932434 1.493081841664584 -8.933242712802297
-24.881420798409824 1.5521935847330837 -8.9667904026313
-24.935507816986107 1.5932109099403005 -8.996334158531408
-25.00155614763843 1.6258402694957357 -9.031592959828455
-25.0747493418783 1.6647257516827239 -9.072733177402462
-25.130591974969157 1.7391390445620205 -9.114159075886382
-25.200222299084835 1.8188147385702287 -9.168505519346244
-25.252453253667312 1.851078689013563 -9.204946253578068
-25.287453075993724 1.8873195438696628 -9.234813449029323
-25.3173359984277 1.9379214758328738 -9.268281040903533
-25.3398890515039 1.9913723582019403 -9.302083820018137
-25.371788334260135 2.0496871890877 -9.343758832372052
-25.42641638304301 2.0931433515160123 -9.39301804594528
-25.467952848915914 2.14881574229826 -9.442251244248348
-25.5004264337335 2.1836695632300698 -9.477718416755184
-25.536404012854735 2.2228163161760675 -9.51786528613471
-25.591243328497015 2.2726229967390754 -9.574156883746141
-25.64409111565497 2.334485751503807 -9.6387486114987
-25.672413258757228 2.3689271439945614 -9.675050310051365
-25.718794888643664 2.40441864859627 -9.720798438882877
-25.763469280214593 2.4624760733606186 -9.782094580724747
-25.8004854547971 2.494667367699018 -9.823991556794635
-25.837710799348983 2.5445640616414194 -9.880891182441724
-25.864714455635706 2.583478617836274 -9.92678810498814
-25.886146307156128 2.634976714864247 -9.985552477859418
-25.913225178789208 2.6845774539647254 -10.046539675282641
-25.92544595413929 2.765293635663861 -10.143909773061814
-25.938090935712335 2.7980339149569615 -10.191879927505347
-25.9607077169366 2.828289847180094 -10.242255329747255
-25.96539940122222 2.8623723702124266 -10.29549975130793
-25.9813981244183 2.8912104165049306 -10.352419017042985
-26.002568858126125 2.927507561383967 -10.432392446742341
-26.020114578781303 2.946520937465474 -10.483635083650887
-26.044503252396776 2.9589874955244126 -10.530993536791524
-26.083369275794546 2.9758576606159277 -10.608068901514432
-26.120628138700596 2.9878546387052376 -10.678496132015503
-26.1540583181663 3.0081535652812454 -10.781451001933867
-26.179299144551507 3.023194891149001 -10.868739293814452
-26.198805178587932 3.0325047837395953 -10.93616496615812
-26.217000004052164 3.0448027751570645 -11.020793460198758
-26.228689523360263 3.052746745766882 -11.079012232830095
-26.23647527661967 3.060374186271149 -11.138194997187755
-26.24223191445971 3.070689530796468 -11.20485016068112
-26.252369212004066 3.0775550916572225 -11.268797476577907
-26.265884570874174 3.0834482857582923 -11.343076069763637
-26.267315248653684 3.0907486942208244 -11.39405511528166
-26.267815504191383 3.0992055590602936 -11.455050446030667
-26.263956611462014 3.1092487481830267 -11.522361910789463
-26.258050461691244 3.119427533377288 -11.591310028768353
-26.25508552242398 3.126755953213963 -11.656672234121837
-26.25553016938199 3.1311888231682943 -11.718998659404093
-26.25014788198134 3.1366232867312114 -11.787565602439816
-26.24076509096889 3.1408087420118873 -11.83958169428404
-26.228151558436533 3.145208273917267 -11.903464551394212
-26.218928474536884 3.1441356232079407 -11.984307417941864
-26.210884096157237 3.1405928109435433 -12.054793470998208
-26.192160167227748 3.133464890960595 -12.156497039743867
-26.180854401929196 3.1291227994639073 -12.210854623536882
-26.162708999241634 3.119903910676878 -12.291840044169597
-26.149412701522845 3.111693579812168 -12.356236397493806
-26.138672480754945 3.104555442466377 -12.406601788368745
-26.12207658977736 3.0988416446488403 -12.466881551858641
-26.103823658208654 3.091386190026604 -12.529687375450255
-26.087203775951696 3.0813378953962642 -12.596426153695008
-26.057275251453692 3.063175681326938 -12.710333469666747
-26.03010599749088 3.053313592076584 -12.785143931275242
-26.01146323787785 3.043021980890688 -12.849362690430016
-25.995259901483607 3.0310062186522915 -12.909505350301487
-25.980333436803093 3.018193390220811 -12.97099267467442
-25.965183761737173 3.004466763806818 -13.035004821830999
-25.949634916351176 2.9902727467445858 -13.098987362716075
-25.935628037779484 2.973813542798941 -13.163455540800937
-25.924694209023222 2.9580787183386072 -13.224654721463416
-25.90817203820878 2.938518841091579 -13.300294656134133
-25.892418159040698 2.9229495462658197 -13.360583745307988
-25.87907526002889 2.9054060415398553 -13.426447539837477
-25.86359788715223 2.8863340044347607 -13.494501210853741
-25.846122060552993 2.861915633314397 -13.57785531285542
-25.831693021281396 2.8472002858469105 -13.630832364903885
-25.81377090724583 2.835740426194576 -13.676484761027115
-25.798741271489423 2.823601325736704 -13.723392359254461
-25.785330741256942 2.809798513960498 -13.769570848618612
-25.771621958783207 2.7966308920674896 -13.81625834409795
-25.759789246087106 2.781785496547526 -13.863024398075915
-25.742041701230193 2.760305786982202 -13.930804925117343
-25.727121100523053 2.7413202970260953 -13.988949130476225
-25.709403687000357 2.7235568154292387 -14.044441110796601
-25.692319131991816 2.7050856690905967 -14.100865325887426
-25.674539268303363 2.6812984465921206 -14.16766746198497
-25.65958081736647 2.6645380508568506 -14.216230170514406
-25.63743331445543 2.6453860437055 -14.274962162212681
-25.61635072221988 2.6251764435294023 -14.33448387503112
-25.602941104854082 2.5984123186249484 -14.400294689664142
-25.58744645170909 2.5771750482399547 -14.455294967541292
-25.56838903003604 2.5607779591982727 -14.503758221759075
-25.53582875943675 2.533715780026216 -14.584188924536864
-25.49743659449082 2.509450261555539 -14.664504692649853
-25.463240183103352 2.493365356601321 -14.724571280877829
-25.439164039325806 2.4725810166564894 -14.785668141309777
-25.412657541888585 2.452600399406519 -14.846429946537818
-25.38611598544882 2.427778180442088 -14.91536885301306
-25.362806223159527 2.397633192709274 -14.990341835680935
-25.330835074489375 2.365730946803975 -15.077796580734974
-25.31845403129478 2.324666326253668 -15.160236742066822
-25.315133807720276 2.274441694585777 -15.248931396512585
-25.30319864225864 2.2416290101485705 -15.315852459168896
-25.28161772513714 2.216314588826493 -15.37781030020446
-25.267148956188723 2.194546731834663 -15.427404995494326
-25.23235588738623 2.175568475023426 -15.491962125796421
-25.205074094832923 2.156661421493172 -15.549073481664925
-25.173206067326937 2.136431751964584 -15.612993168005382
-25.154730927610036 2.118831514542528 -15.659732517492955
-25.12316736369428 2.103089483201649 -15.715957181227774
-25.09238082688561 2.0958586468278417 -15.757609161202538
-25.06584339441615 2.0814176933656268 -15.806440118471324
-25.034702264124576 2.063842766355444 -15.865583349689228
-24.997369867639478 2.043586628409401 -15.935490545217322
-24.945537033112245 2.022178620463184 -16.022427629709238
-24.905606664219025 2.003119849351984 -16.09319353868587
-24.87859287523224 1.9839564826309917 -16.150958003903014
-24.840566103403486 1.9616839682790403 -16.22327069748753
-24.807993733776094 1.941226944758878 -16.288574053740177
-24.776780892273475 1.9258846604472377 -16.34339518934964
-24.745492887234633 1.9103257005928254 -16.39794674513684
-24.716018885397865 1.8928302171170919 -16.453203274159986
-24.689566531637272 1.8753057662034034 -16.505027320663032
-24.640111416846732 1.8569429128089672 -16.578782914632594
-24.58308658147665 1.8421167061923316 -16.65375637081223
-24.546871455791084 1.8344493602202072 -16.69693580696958
-24.506376502001753 1.8247631619529772 -16.74780075683013
-24.464669556511115 1.8146259526544897 -16.79801464065272
-24.424077239460775 1.8043394742273404 -16.845644532448038
-24.384516543818954 1.7883388400593776 -16.90117170305153
-24.34188594263002 1.77160829133237 -16.95942771147083
-24.26537266325501 1.760478167316967 -17.0364508335739
-24.220431561291605 1.7517591945714446 -17.08177064660016
-24.17550412425572 1.7321028299304562 -17.140320163798513
-24.128259160246333 1.7097046900667472 -17.202881977658166
-24.095578449773615 1.6923796113418275 -17.246550304102815
-24.059992437216785 1.672811010058763 -17.294335421592134
-24.029681444165593 1.6545851090653598 -17.33684102446194
-23.99467335001239 1.632654668358248 -17.386587021985967
-23.952358482469716 1.6102633397503925 -17.44149586373772
-23.91284959827776 1.5886512687682557 -17.493126462994475
-23.875608356086545 1.565482879283297 -17.54467126737724
-23.836109180010997 1.5408968186956964 -17.598468547833836
-23.776870278438505 1.5070378216261937 -17.675575075880214
-23.72993619306294 1.4818768081991927 -17.733607743692307
-23.687873634922983 1.4598355420935085 -17.784679495064292
-23.657213841647742 1.4428450084805142 -17.822177305795353
-23.601696802074162 1.4155188655157074 -17.887197815719944
-23.569702812939138 1.4004548421453105 -17.924054844712483
-23.52250066441133 1.3793621172559316 -17.976290414216635
-23.467681963607518 1.3500392919631332 -18.040489027840586
-23.435267717658387 1.3337586797817274 -18.0770609467075
-23.395536225950547 1.316517564676049 -18.120068491847388
-23.332540619959953 1.2930892806438052 -18.181828201724276
-23.300214105090458 1.2763665655472833 -18.217396854212502
-23.249504586030064 1.2549773193721157 -18.268669681580054
-23.20105318815561 1.2381543391033323 -18.314054663330904
-23.151780835555385 1.2188212233139415 -18.36122962590448
-23.11301845568443 1.1964731566881832 -18.40316907831403
-23.065892135323114 1.1747315972317693 -18.449172197181866
-23.015962113786244 1.1542576191424772 -18.495291602629816
-22.94735328564946 1.1188511758593036 -18.561485076515932
-22.907393717712225 1.0907160483951086 -18.60414872883806
-22.87382740049096 1.057216979938672 -18.645430864709372
-22.841349544893145 1.0233255548092453 -18.683214860195058
-22.780084694904545 0.9665329008732797 -18.75007523372517
-22.704498954998666 0.9307682629224316 -18.807160722688984
-22.649069916218256 0.9033555060826719 -18.846448010432344
-22.596605285087904 0.8708779166198033 -18.885645147014827
-22.535515985376488 0.8509536746407949 -18.919954574795756
-22.480625972447342 0.8412157425728826 -18.946193541184545
-22.41449329304419 0.8137980819004038 -18.982290605626822
-22.35727707246903 0.7882642095394803 -19.01273025863548
-22.29854555367634 0.7661600704801188 -19.040978306218978
-22.242371919028702 0.740001635668416 -19.068798615488298
-22.191368626505042 0.7087227546985071 -19.0956037175873
-22.143470081127393 0.6651302098871158 -19.12425275548485
-22.097417873610667 0.621738056545074 -19.15105377002985
-22.04350526228595 0.5710736434379147 -19.180490829552085
-21.993189604070242 0.5422136208357524 -19.20348607724839
-21.95077772953826 0.5216907133756192 -19.22025487383933
-21.89806996895255 0.49863983132531275 -19.241408352134563
-21.798992278687155 0.44621897626143203 -19.282145364406063
-21.710498158005375 0.37803782222920757 -19.323310915975295
-21.62213667887335 0.33224989291633833 -19.360209592677574
-21.566341326812196 0.3038187655601666 -19.38358662526828
-21.494321865482746 0.2763684215773786 -19.41305616634368
-21.43218456657448 0.2724902389302709 -19.433865101849165
-21.336504243615764 0.22340016378522887 -19.48153355796056
-21.237510947368175 0.200984371534755 -19.522123574578412
-21.16160793335823 0.1603090359908168 -19.56141619336097
-21.10614132709846 0.14156609918330554 -19.5874272024889
-21.047697585788256 0.1177285523905437 -19.615960622580957
-20.956890164096173 0.09836481760108584 -19.655165541656114
-20.8600853031522 0.07033031592328032 -19.698655115736397
-20.787100398596284 0.01798190012555101 -19.737351480678367
-20.743146579963724 0.002142235294723349 -19.756268302090007
-20.695097999935754 -0.014423601868346791 -19.776131090778154
-20.6390087717691 -0.033499592663034816 -19.79702773415476
-20.53405278902603 -0.06450616871432957 -19.83657182926704
-20.475390275882198 -0.08709821848701149 -19.856339883146628
-20.416871906417224 -0.11003520488320961 -19.874634768064166
-20.358571470510125 -0.13366772886168454 -19.89094021105692
-20.30153920756154 -0.16015078987103926 -19.904754196562116
-20.241969613708658 -0.18244262203704964 -19.917082592622684
-20.18398732844453 -0.20754616482716703 -19.926671445317222
-20.13004172433244 -0.23438884660596893 -19.932986804048685
-20.06302091295863 -0.2654198836931245 -19.93942451570641
-19.994445908143486 -0.308051955146843 -19.9414107833551
-19.918435660989392 -0.3310542113046002 -19.946025383326763
-19.779043987453157 -0.3631870876678829 -19.946603852861603
-19.70333476244606 -0.38501581826185216 -19.94370425863258
-19.6420905951876 -0.4012229310273523 -19.94044070567948
-19.56650554919507 -0.4178162860453929 -19.93577523911956
-19.496198066318197 -0.4352100774263479 -19.928522025249983
-19.430344656662065 -0.4578885922496594 -19.91801599598873
-19.337959903404162 -0.484946614882225 -19.902044231428132
-19.239933045717407 -0.528902449553349 -19.87583319858324
-19.152944853202108 -0.5532040463750951 -19.855007236568646
-19.044996678487326 -0.5869880392528712 -19.822231222484245
-18.939578414631903 -0.6357454725558489 -19.77813515465553
-18.86857406211702 -0.6508799255924709 -19.753708205216054
-18.815325658506843 -0.6687781021325527 -19.730455446339132
-18.74373337032365 -0.6889864969754866 -19.699228500261896
-18.679561612444243 -0.7054241419063092 -19.670419270198572
-18.617549170626265 -0.7221376366377434 -19.64067778237357
-18.542150411769892 -0.7497412073013321 -19.598784840892076
-18.487862829854766 -0.760438101828879 -19.57181054407762
-18.4330461275547 -0.760295887097274 -19.54849004749651
-18.353169472931874 -0.7548826610708421 -19.51604713499742
-18.29659274405487 -0.7540354720689706 -19.490906540519177
-18.23830706600815 -0.7640112112372399 -19.45911886923948
-18.192167222092866 -0.7703059281422264 -19.434376834071298
-18.138293799495393 -0.7832776728219768 -19.40277999896185
-18.081022590671274 -0.8024745029513014 -19.366023325928094
-18.007742502515026 -0.8283753679947778 -19.318407386397112
-17.951235583458352 -0.8376780861757269 -19.285381658952478
-17.896753516985214 -0.8350930321794208 -19.259028960910662
-17.829485250108995 -0.8385008739427053 -19.221618966040865
-17.766069758657295 -0.8451945497136448 -19.18501881073334
-17.711482329171478 -0.8402227019859472 -19.15763009837683
-17.664599457148913 -0.8337840953243936 -19.134605655344647
-17.60814093694039 -0.825034837535245 -19.106914433032347
-17.5093583829144 -0.809735782813086 -19.056972216669614
-17.459788995368296 -0.7942440247470859 -19.035032425527753
-17.363618705815625 -0.7857507150221605 -18.980764705740658
-17.292337803658164 -0.7627714793273321 -18.948849472790766
-17.217106383372446 -0.7586514519882319 -18.90463399068976
-17.171208461482752 -0.7568843196381196 -18.876572840437337
-17.127624681625395 -0.75072260807137 -18.851826631669727
-17.082124259211852 -0.7347730920682543 -18.82883469791583
-17.009656248006007 -0.7296204802182278 -18.784002232458427
-16.955203372862485 -0.7272815496192993 -18.74908199705142
-16.91209332835103 -0.7263416535071352 -18.720932429964027
-16.85399571498522 -0.7351994240668038 -18.677845778496533
-16.792045960862605 -0.7459519327673196 -18.630929357720092
-16.733560304854464 -0.7463657650940261 -18.588279769900826
-16.642112623260196 -0.7403539379473849 -18.52172945781962
-16.590880861249726 -0.7450764494160664 -18.478457310623607
-16.543447800322046 -0.7420283456010341 -18.440390175767085
-16.474349711071504 -0.7349265759950598 -18.380237062241967
-16.42021030829579 -0.7329864974080753 -18.326212211789276
-16.356400819853256 -0.7399285613790925 -18.252180221629413
-16.3173384013504 -0.7338234365190441 -18.202531786424647
-16.271741012372267 -0.7273738409325492 -18.13726665088285
-16.22977688329607 -0.7248461812469891 -18.067598840112666
-16.195640041188557 -0.7271219573764345 -18.002949588736165
-16.156399782225257 -0.7380730956342227 -17.921435087107014
-16.116914113877566 -0.7394036844737628 -17.844249223325473
-16.071859470232223 -0.7221414973052547 -17.76464456313123
-16.046315073512677 -0.7262720297816747 -17.715539114057268
-16.021405521395756 -0.7327643394754697 -17.667869165110314
-15.988385433561525 -0.7435341247573009 -17.60638655798196
-15.96292269168932 -0.7537311555442259 -17.559655992071146
-15.933749654497964 -0.7655565406612499 -17.504456658399587
-15.90810281260427 -0.7777167827752143 -17.45777547015905
-15.870187331323146 -0.7805874293612551 -17.386038642643367
-15.828989474968532 -0.7410207550689174 -17.316442397747174
-15.79483663126295 -0.7156439270033077 -17.253148162301944
-15.765148598328043 -0.7098963663590296 -17.19445692675766
-15.73529091923899 -0.7058696259146278 -17.134907628462663
-15.68606720512199 -0.7080555937513577 -17.0368902738979
-15.649129327898162 -0.7142083209878514 -16.960430179977237
-15.62168979687676 -0.7189385286779288 -16.90370120495186
-15.58932111881615 -0.7142880821465594 -16.83352854826621
-15.555900332949392 -0.7142011362749991 -16.760276760222396
-15.525026151871906 -0.7239339004441283 -16.693711490762297
-15.493355441095709 -0.7300203423284333 -16.623344194332926
-15.46489552336545 -0.7336745479456142 -16.55980086180917
-15.423264307185379 -0.7599976199600185 -16.469576442546867
-15.399860667447964 -0.7662366969116856 -16.41490740615361
-15.372464394420644 -0.7766772902903945 -16.351338092860665
-15.346624877903762 -0.788178283561318 -16.291188244635425
-15.320754561013588 -0.7920696956876319 -16.22363485179123
-15.29373804134026 -0.7861481120043263 -16.14306174821149
-15.273387144026113 -0.7873107884584234 -16.082592676343168
-15.241531971630163 -0.8067129375389996 -15.999649564745447
-15.213839268744305 -0.8350865264281007 -15.936826582451273
-15.194688316144111 -0.8530451580962024 -15.889988874788436
-15.172314448454976 -0.8775527130285121 -15.838254950088336
-15.148829533955618 -0.8985209459061385 -15.772889751131133
-15.129557211561982 -0.9103047253817487 -15.697918044958701
-15.11473712175899 -0.9227045339667703 -15.638641927336465
-15.104696654631313 -0.9249863242896121 -15.585945525906453
-15.092319877359937 -0.9247583127699681 -15.503566038923655
-15.081952231790678 -0.9300608279414095 -15.42883909185928
-15.07624193545288 -0.9268328615129919 -15.354650681745909
-15.07360690761754 -0.9252480722470517 -15.298953132385577
-15.070326804077304 -0.9266160916570214 -15.219285270845187
-15.070369768994942 -0.9261812356661623 -15.155031605049333
-15.073105244433751 -0.9230614375023405 -15.074547453603795
-15.081283791596304 -0.9148463779445752 -14.984447267602434
-15.087651734981568 -0.916792416166482 -14.904740984865253
-15.096996840686183 -0.9186895744686889 -14.81586381899094
-15.114393680803657 -0.9101597989297503 -14.725615642476889
-15.12624861016303 -0.9032363993925709 -14.67578312580065
-15.143506143449079 -0.8932865038773037 -14.610108183497525
-15.167099604413028 -0.8803937447132506 -14.52932935048436
-15.195954651429759 -0.8673599105036576 -14.439475763666131
-15.214379450705996 -0.8608350989668185 -14.384220432924115
-15.234665323358069 -0.8914040860007435 -14.274481597232782
-15.258706041859297 -0.896694308162975 -14.205523675835316
-15.28256072156966 -0.8957564927409549 -14.148787129556565
-15.322572838150913 -0.8883247629776465 -14.065599724014172
-15.356179108394937 -0.8851936552129775 -13.997608958296972
-15.400654006146071 -0.8884550237478135 -13.905836151310714
-15.441069070470789 -0.8911678705814403 -13.829569286133394
-15.484188656264891 -0.9110755214321011 -13.74083604226518
-15.539769586237364 -0.9067722356852739 -13.648137391022518
-15.580691190465837 -0.8948860865699764 -13.585813883368528
-15.620666321863872 -0.8917482376987962 -13.523039663188523
-15.651868909676779 -0.8933294423850653 -13.47332792521773
-15.709046756431594 -0.9067650707403405 -13.381186090173946
-15.757911871422468 -0.920738171694041 -13.303934965059
-15.791861758058795 -0.9504978230545065 -13.249472144029182
-15.824680990361276 -0.9802117697007009 -13.197340539687442
-15.861496263905435 -0.9894316718164713 -13.151122125673528
-15.900387942219687 -0.991863014600934 -13.10250213254347
-15.951848754384656 -1.0044327388871166 -13.046049431265985
-15.99855180287985 -1.0027103302823688 -12.998629087854201
-16.055707298498206 -1.000166022239928 -12.94635701401774
-16.115751627057822 -0.997782521875638 -12.895743399278128
-16.150840094708887 -0.9954224440072157 -12.867092480755737
-16.202871494185032 -1.0027617410828673 -12.828943236132448
-16.261969168854144 -1.011441271532133 -12.784863127363282
-16.30691208599496 -1.0255771449237698 -12.754019492777005
-16.374377159459303 -1.0506111777386928 -12.708969731981469
-16.41914278504901 -1.0604417913697148 -12.679032212746696
-16.471824250078484 -1.0671053224506613 -12.64300225166971
-16.521978201203783 -1.0682537225154334 -12.608407726776136
-16.580577687703858 -1.0606310602139828 -12.566403380352392
-16.642854290634812 -1.0467420577543856 -12.520246885047385
-16.72080132557566 -1.0320035018100169 -12.463907732971736
-16.77837786954993 -1.0230069367039258 -12.422946951744096
-16.836669885510307 -1.0127255511970243 -12.381083961467217
-16.894451698751237 -0.993540314975893 -12.33681255546107
-16.94377482632708 -0.9838194882279525 -12.300524855325163
-17.01019189013292 -0.9702599588110543 -12.253071745955234
-17.083360168519945 -0.9913611236409963 -12.213967695183099
-17.149216082115686 -1.0257465194173692 -12.18617529570285
-17.235999390160146 -1.0638930481807638 -12.147279330379455
-17.31089526913006 -1.0650560632495905 -12.101668483461662
-17.375262324413374 -1.0676243387645352 -12.065051934948379
-17.43499556670569 -1.080059218677585 -12.036910769396501
-17.48366919921372 -1.0680380556135265 -12.004943686249321
-17.534949649882563 -1.0480837151508868 -11.96959624507574
-17.609395655129113 -1.0347976088455193 -11.925437947146495
-17.670741382416775 -1.0133523307257526 -11.885594846628388
-17.732010128980786 -0.9999562813571454 -11.852213819593068
-17.782296827202792 -0.9875631725748926 -11.825519542349518
-17.8267456152511 -0.9785759670527561 -11.803972380100857
-17.9039887837691 -0.959281625133517 -11.767293951174736
-17.952601986451302 -0.9459321201896735 -11.745285755639227
-18.036978345670413 -0.9217740308168432 -11.708262735543208
-18.082392093570988 -0.9087532194320567 -11.68921832360467
-18.14388858118373 -0.8919766231717705 -11.664961042615424
-18.211956351308924 -0.8666866467652306 -11.636170280600215
-18.30245672735556 -0.8290032700489844 -11.597722211055208
-18.36021352788319 -0.7330287091103282 -11.548760884208134
-18.396064999358988 -0.6845988823601978 -11.521762651495317
-18.434019897282408 -0.6282483032875636 -11.492909977595353
-18.4711857134521 -0.5491431367442927 -11.455847989183336
-18.48793619338686 -0.504850912999528 -11.436140558850258
-18.507076208765675 -0.4419399788908134 -11.409344139442103
-18.539710773800792 -0.3789616911498632 -11.378569733447808
-18.580729732651317 -0.3350317255305788 -11.350849160137395
-18.623466559055707 -0.29384586998815165 -11.32284952271951
-18.67176007687272 -0.24887865113029983 -11.29102933511273
-18.71929331180588 -0.2269970196578055 -11.267645885307541
-18.79413482553732 -0.20547704337229966 -11.235209958794638
-18.851894234497774 -0.18057821648642292 -11.206858392427172
-18.904032252725404 -0.15019664914308017 -11.178314075380992
-18.958081431817977 -0.11811718509110425 -11.14841325522559
-19.003690338808966 -0.08075252621837703 -11.120375942439601
-19.0548034754966 -0.038159488254613905 -11.086744340756967
-19.10003310588556 -0.00783573517449021 -11.06134261163556
-19.15427890077701 0.036647706955671655 -11.0277917621397
-19.21371314445905 0.07720114584779458 -10.99424785123194
-19.27840438047241 0.10853807268842097 -10.961711392606007
-19.35976484900476 0.1397042797572592 -10.924200940003766
-19.42987268456733 0.17684031814249213 -10.88889807770269
-19.501261075660395 0.19170940729034602 -10.861145481877179
-19.58977320102132 0.20865420236424226 -10.830481724710639
-19.69588033106523 0.2262631929248471 -10.800073888072692
-19.778891182203306 0.24296172746144062 -10.778361032096461
-19.837305777997056 0.24701874311104566 -10.765013854952363
-19.889171923199946 0.2574496988762438 -10.751662477246175
-19.95380271195292 0.2638501503578362 -10.7359059768009
-20.016388881601262 0.2753901288282683 -10.717868721226932
-20.069251950170408 0.29382027452111914 -10.69928439481314
-20.12785825684856 0.3180510725974852 -10.67632616880296
-20.226262065359755 0.36464424573995136 -10.63103104702896
-20.317900164736372 0.4165324792779477 -10.58262474643964
-20.381057726622302 0.4233765899869062 -10.549425049961846
-20.458611665178278 0.44354067367387806 -10.503428710699833
-20.52904876935248 0.45905253346228814 -10.457767551207438
-20.596410018845177 0.4844239589604544 -10.407086364921053
-20.64059078543887 0.4900206671494153 -10.374765563676632
-20.689484438939107 0.4929373885880839 -10.338594501207654
-20.73849233373393 0.4981777802862031 -10.300326156360759
-20.783106809497724 0.49768855086323627 -10.265792360003987
-20.831441486219894 0.495693153337315 -10.225553650731035
-20.887358134256306 0.5051433712286754 -10.179850960691619
-20.957612737709532 0.5218998073917631 -10.118946001518248
-21.031632089318087 0.5088752240418187 -10.056634224122364
-21.085847966433036 0.5021496203519753 -10.011164897050291
-21.14107508964096 0.4961730646652581 -9.9638266512781
-21.18971000140931 0.4923951964835107 -9.922359059987265
-21.248954641475606 0.49994892028359683 -9.869775810352957
-21.319049321648095 0.5001899942121691 -9.809188091830087
-21.402239371844058 0.4986069604947678 -9.738575698266013
-21.467556591308327 0.5115666059596732 -9.684078483709621
-21.543986452282315 0.5213870119894339 -9.622193471227979
-21.599768473192796 0.5254254422316589 -9.578395005579441
-21.658854996938274 0.5410899077154359 -9.534272438862395
-21.732208216344105 0.549020022117809 -9.48139110206989
-21.804385918884293 0.5491186840401026 -9.431214293209909
-21.85291959226335 0.5532095406469648 -9.399728921931962
-21.919848468346075 0.5456526416651074 -9.356687735578818
-21.973675427870084 0.536115664197451 -9.323805204576749
-22.02674192002131 0.5259743372642981 -9.292400724841636
-22.091593538251537 0.5164949390423295 -9.256083630122637
-22.16052565376048 0.5038833338364753 -9.21810984275193
-22.23343305630626 0.48611587080510477 -9.179174134639158
-22.317571047446798 0.453051465657326 -9.13538557096161
-22.39666602752961 0.4345811112337138 -9.097561213595135
-22.445879795625462 0.4080982602874791 -9.073514251204353
-22.504634225466148 0.40052632050691417 -9.04733728407043
-22.588544549116122 0.39493853813314705 -9.011770828563566
-22.665966148373954 0.39273715585039737 -8.980679081256602
-22.713885097388246 0.3927291811704371 -8.96159395916814
-22.796095957609644 0.4090446245261402 -8.931105956628333
-22.866432041123236 0.4332170167017524 -8.905936702420362
-22.928346009425844 0.4595896225579872 -8.884437177966689
-22.977704513580967 0.47467305029038376 -8.86755659047735
-23.05547317226455 0.4986877373661367 -8.841733253207943
-23.152564820195003 0.5172339492153918 -8.810555758275973
-23.211872619806908 0.5326332024739876 -8.79335240492191
-23.276356911013252 0.5560045102827594 -8.77494655835834
-23.349275620484082 0.5721885405881098 -8.755633185722907
-23.4366001059357 0.5926256863421551 -8.73466199189526
-23.50201137409703 0.6103480837653891 -8.721251380379147
-23.57501330076906 0.6378589153342682 -8.707815854802238
