322
-6.539638534750388 2.307604636672628 22.244977384709888
-6.588298747678628 2.2969870003050783 22.22447645947442
-6.6566667912401964 2.282048185338321 22.19569241438367
-6.722012780876607 2.2668337688441573 22.169987448011103
-6.7993182982925 2.2452442145169993 22.14702432197296
-6.8920910146119985 2.2129028438297 22.128722666473124
-6.96363431972689 2.1910073148406193 22.10898637060876
-7.062710706833679 2.167893647867049 22.070151485382755
-7.115533280201007 2.1535833992524758 22.051879983959534
-7.196567551225002 2.1296133422520214 22.027056471699115
-7.253228001281092 2.1122580989535065 22.010544483970644
-7.3291791462747735 2.087791926038859 21.990394157686158
-7.432830695468738 2.047060077817746 21.975005154908605
-7.514525325689544 2.0212529600567164 21.950384234431894
-7.588898371740023 1.9953972380469878 21.9316910249694
-7.676454823151783 1.9763378655030703 21.886243958144025
-7.73372378646128 1.9554913960022449 21.869606133533757
-7.800273826006707 1.9253666295283447 21.861283742522797
-7.861294907775558 1.9175769096339026 21.81830517785312
-7.94812691516105 1.888857881333238 21.782857660965828
-8.010151961486608 1.8689955166822616 21.756020536373722
-8.05130014536513 1.8614100885297964 21.72518394082358
-8.091771537151727 1.8527390345219519 21.696395247281092
-8.145618056272315 1.8330746524571955 21.673696335697596
-8.220401538862005 1.819744455610935 21.610383737832187
-8.266885139890638 1.8061609296279444 21.578224209438925
-8.34033003546709 1.7878964641811985 21.51721313329358
-8.424869423579073 1.7623218895684054 21.447927290455695
-8.463393736540658 1.750269181212037 21.415024738390898
-8.528681232375728 1.7280045827815467 21.35530316852207
-8.60319760942639 1.6983752356256565 21.286643780467738
-8.643964770943645 1.6784206000522068 21.252636051779902
-8.683149064169324 1.6581882264805305 21.214184927873458
-8.735458599521174 1.6283934860772693 21.159055650244742
-8.788711631880266 1.5925812794382261 21.091861191782304
-8.829012100052111 1.560244155994854 21.040708466974085
-8.866649923534556 1.5244647032281138 20.99128816034677
-8.904018345261292 1.4836617552355154 20.944673951065464
-8.934344931377732 1.4464102317190253 20.905265184566723
-8.969322010113993 1.398328097955672 20.849531765666125
-8.991157957849541 1.3642338148707764 20.808891765008543
-9.01366269117707 1.3253716125492534 20.765913494742275
-9.03853096768356 1.2781326281527854 20.71771060088681
-9.060745004737717 1.2286827643024913 20.65636265357918
-9.077784547522894 1.188042386755096 20.613138547953355
-9.097080078282008 1.1317614104443454 20.55615451932542
-9.10909817576642 1.0915512091215642 20.510748594919203
-9.120201008639473 1.0489885888605925 20.45564384289153
-9.128350461551094 1.0126743706832648 20.410031532170745
-9.13936700736413 0.9582974861097246 20.348752314510723
-9.148089771359786 0.9108151250203946 20.297716983609497
-9.157284352197044 0.862398157412912 20.25627327711635
-9.165461201170185 0.8040563998687722 20.197631391275962
-9.171951840426255 0.7399051439015609 20.13124660794225
-9.177500152038279 0.6809283883164439 20.06513209406526
-9.181191796356824 0.6368908191435099 20.014485733619036
-9.186011329691881 0.5876566333308928 19.976520663253922
-9.190936591535358 0.5193364101244635 19.910665030485706
-9.193443057371129 0.4714235321911697 19.858166053969786
-9.198068772558482 0.40447327269004263 19.78565887849641
-9.199393030363487 0.3388072296200868 19.699005408248016
-9.199766809903311 0.3022922617758248 19.642223933734517
-9.196570644569704 0.22165437721883863 19.530788104121783
-9.18923061542592 0.16410501855454052 19.44920322446363
-9.181749050392323 0.1389678713267355 19.40011477078846
-9.169059998244713 0.12282753793704715 19.342291191318054
-9.15704818248225 0.11140134343505026 19.29366656444471
-9.137312432088985 0.08157726958084743 19.21883501035265
-9.117061882183226 0.07064711009023017 19.152890131498197
-9.07475334059893 0.033093208157656706 19.033228432784252
-9.038630160356936 0.01006183251525683 18.945005957177187
-9.009921387689563 -0.01050910548932893 18.87447453573486
-8.984327196311925 -0.03416479913655901 18.81548488731242
-8.95984010120792 -0.04590359980679737 18.761810676565215
-8.927704952390648 -0.04677180109357981 18.691773748218033
-8.89599666485037 -0.045182359784889714 18.62560028148065
-8.865445206601077 -0.041259750914375504 18.56225081256212
-8.833358877858373 -0.028160693907585133 18.49617258819965
-8.807068117289589 -0.016720844685746306 18.442111573755923
-8.739177096720478 0.0001936635536117226 18.302189961216424
-8.706600840218698 -0.0026854664088455937 18.233080761823437
-8.68311604092905 -0.002867013809818575 18.183237234133298
-8.655115005853887 -0.001024856768346849 18.123516125662253
-8.630221799274537 0.0028122456395303086 18.071359310064228
-8.596838247785664 0.010395009092021512 18.000923366189014
-8.542997982887838 -0.00844423333758093 17.885030505344364
-8.523756709782111 -0.03043858986360992 17.840245936055013
-8.501981176401145 -0.055713723388780556 17.786247758240034
-8.452358353911082 -0.05100825697944722 17.686002806222618
-8.405642303345125 -0.04896810677283958 17.591328746535755
-8.379431526132084 -0.040990381247051344 17.536542719511427
-8.339614743147212 -0.03238474324553642 17.456460388836454
-8.306571561896524 -0.030129409146946395 17.39206713549922
-8.266393543082716 -0.04166596561421643 17.308113225455166
-8.234397441507987 -0.05246142052807712 17.242977365276545
-8.208486445511138 -0.061313851433770106 17.191114380624384
-8.151752168970464 -0.08302355105636372 17.079059905814304
-8.112017243556602 -0.09470473128980461 17.001854348860665
-8.082508619443715 -0.10058185714497259 16.94842308855648
-8.027808916958605 -0.06714975838674397 16.856985721078686
-7.987155052851121 -0.04455047949001467 16.791235759839186
-7.946957374870618 -0.03467036583454175 16.72632281875971
-7.928710134535503 -0.03017816328787748 16.697263932786075
-7.9118478597989155 -0.026198854518623138 16.671036248570168
-7.879681902949064 -0.0194279479582804 16.62106833208058
-7.846699098466388 -0.019015658948615455 16.571653946818444
-7.812627112127659 -0.021480352387291513 16.520159074300217
-7.769211088544274 -0.03027008599505998 16.455879375340412
-7.733992510406898 -0.0322348707511424 16.408870377128398
-7.6985885678127195 -0.031249182890176863 16.36178153892383
-7.654451963490309 -0.03972460660619226 16.308135205519765
-7.614039209120288 -0.05545247574905532 16.259595124005113
-7.578772504794146 -0.06680754084343721 16.22054120523455
-7.544250038666159 -0.07738397831148425 16.185889495268405
-7.496670600437814 -0.08104332777173018 16.143173363594958
-7.4396104566978085 -0.09020783918753295 16.0981768196792
-7.3507416703151405 -0.10249000147100706 16.03953898431215
-7.270738514920647 -0.0973831346602474 15.996447445679202
-7.181308075946056 -0.12034760539988221 15.95954272528825
-7.105991043860159 -0.11886600507008205 15.933441300474891
-7.0330181422187685 -0.1568580432268163 15.914265076612832
-6.926411641161633 -0.21513189633773133 15.900726542950347
-6.863613413324606 -0.24469042163950516 15.896304537448051
-6.778965039592561 -0.2689118928655303 15.894326267050106
-6.696904439598202 -0.28739896474341564 15.896388770443519
-6.62726242181218 -0.304015194602804 15.900428101377623
-6.577177858966372 -0.3107388817015797 15.904255771637386
-6.515215394652177 -0.31221676287789735 15.908777327562282
-6.426905666163894 -0.31364253108304063 15.916224454064022
-6.370960118707872 -0.31860419463386846 15.921844623478274
-6.30808305429695 -0.3250612223629734 15.928281810276
-6.2385866848826685 -0.33995582508189526 15.936143480201977
-6.174273941503194 -0.3563088843051043 15.943519291193386
-6.074327793681413 -0.38478149028319986 15.95420060251907
-5.994185088885814 -0.423563584663017 15.966759989878003
-5.937568871494035 -0.45710515318817646 15.978559873208557
-5.871806520530557 -0.4929829823013352 15.993704233794018
-5.795605942762569 -0.5259462020939638 16.008679434441785
-5.730339153079914 -0.5408459211368244 16.024410742614265
-5.66220868711312 -0.5558260739408942 16.040103799292517
-5.594705149020079 -0.5638305796090373 16.056676717334916
-5.544056189781542 -0.5715809547982478 16.071031667217625
-5.4875510458137 -0.5917297500767151 16.08814400544304
-5.413376199622275 -0.6170945536912715 16.113229408407896
-5.365468122264375 -0.6363248790898066 16.130931780418546
-5.324046081130757 -0.654729295808606 16.14779081838411
-5.237927681490845 -0.6929383211356301 16.182804866795397
-5.164092329307871 -0.7270792131298418 16.21498071542463
-5.088431647610828 -0.7675057765874305 16.2512837375515
-5.048281348717196 -0.7972762450445596 16.273130684731903
-5.00693655937739 -0.8257255838673265 16.29588126446066
-4.944820406511059 -0.8642160299590225 16.330336619932936
-4.907066172681628 -0.8963790410832371 16.35429913954446
-4.802940723399397 -0.9858770651017188 16.423139843624586
-4.737749651028815 -1.0237304176203688 16.464578098053472
-4.698054219812174 -1.0476475169498365 16.493143932368817
-4.631632034850781 -1.1050364957080336 16.546325170776704
-4.578816398280337 -1.1377423892068055 16.590174347285362
-4.5364340205529565 -1.1661339132476043 16.627262642668324
-4.500296034671413 -1.2050317043325631 16.665057513262173
-4.46200191714616 -1.2538551290788489 16.709160643657654
-4.436365614682095 -1.2984991871418414 16.74431450741094
-4.406654921165102 -1.3498450756465814 16.787807227264818
-4.353792290624378 -1.414070521129014 16.85639132009818
-4.3206388097761925 -1.4513335144526323 16.89956383535809
-4.288790341952021 -1.4861470948098188 16.94363830111256
-4.256313852297184 -1.5225652397135143 16.987178671306868
-4.222920010997286 -1.5597908381283954 17.034242826534122
-4.182791263831343 -1.616781638358036 17.097583471699124
-4.137696192895765 -1.654347251121236 17.15790808702891
-4.091131559301043 -1.7086444203758042 17.228068251182197
-4.046273572381687 -1.7379636072786917 17.285179736288608
-4.014471291643117 -1.7674959035988833 17.329989290217217
-3.978812066126652 -1.803731484133689 17.38167580372986
-3.946236103039687 -1.8372006177074909 17.428778045772695
-3.9182931683829816 -1.8694532161011372 17.471569456304213
-3.8823904084529364 -1.9161358072230368 17.52987337830791
-3.84892300868097 -1.952991944036062 17.580489528005415
-3.8050559481716775 -1.9919281928249395 17.643164899494884
-3.745771414144512 -2.00541025618371 17.713075662371512
-3.703927177885771 -2.0196050545945665 17.766558623905894
-3.661161531122759 -2.026109328250267 17.817192996481175
-3.6073856139252714 -2.042628725135505 17.88744985610175
-3.5528879709876096 -2.0678546697527533 17.962810406213723
-3.5020648132214482 -2.095513578603672 18.03535183279829
-3.459085962219498 -2.13099623014842 18.10002584508476
-3.4314081056004486 -2.150827024158172 18.140819150498555
-3.40378483022044 -2.1688623488085073 18.18109910660766
-3.3756147979881495 -2.192174380791374 18.22287966119102
-3.3464356261048307 -2.213942832894954 18.26606871238466
-3.317680421821658 -2.2429313459169125 18.307750488557115
-3.287237825206044 -2.2728877292753102 18.35173939470685
-3.257954080865722 -2.2929561818215127 18.39248421831115
-3.2103017288815794 -2.3134187925751055 18.458421714078998
-3.172215493830583 -2.3385934560375725 18.508251386627737
-3.136550916084235 -2.3415010074478237 18.55453967367681
-3.1034684910361423 -2.3556757287337087 18.59804094267996
-3.0489780781727127 -2.3479037556550706 18.666616552302568
-3.0107770702379626 -2.2986578747075166 18.72206579069698
-2.987771201181158 -2.2688479420092573 18.75526751476467
-2.946608423794485 -2.2057429647118605 18.799843881419275
-2.9121768377741732 -2.178794074653637 18.829039641639863
-2.859639031767756 -2.1264579654302747 18.861526712001822
-2.800851927720182 -2.0331734541784368 18.8856574809968
-2.7550506878393213 -1.942540198393259 18.8961004015378
-2.7458846092323697 -1.8321283913876465 18.88142886427876
-2.719941931472459 -1.7663702742863607 18.889014714594463
-2.7204715578732825 -1.7003481105801954 18.87954707092741
-2.720210949673212 -1.6142392854208498 18.864723063478564
-2.7221679000683823 -1.527083681248764 18.85639216059177
-2.7234280886540745 -1.435381858296618 18.85845087785947
-2.721767250510604 -1.3487083127620794 18.874640649724487
-2.7147873399470432 -1.2683555994192666 18.907381160453625
-2.709123091335927 -1.200087573434678 18.950834789217602
-2.7092741402210425 -1.1464659148022374 18.98547389260797
-2.7096059234825924 -1.097969545440004 19.02051368433078
-2.699772943605982 -1.0410148907117678 19.095532452466305
-2.694283457087087 -1.0047722274455484 19.145485166942706
-2.6870120340194137 -0.9703677407481768 19.201149312679515
-2.6814487921093564 -0.936507022343904 19.257793623686
-2.6808419513062933 -0.8939187010969236 19.312975229717633
-2.6873094399243733 -0.8462650881622158 19.355881885924113
-2.6964773293460667 -0.7947258064334572 19.402761494664137
-2.6985794938367587 -0.7617933279582807 19.447307071886414
-2.699638951651126 -0.7188898879797614 19.514757249933943
-2.69829030350681 -0.6868821814910653 19.574782079954655
-2.697419511371022 -0.6493657571041564 19.64630531385772
-2.6998609310961195 -0.6080291580912991 19.7213365909317
-2.708218869149283 -0.558254052046135 19.79859172696371
-2.712639463839965 -0.5216485649022526 19.865806994007553
-2.7241021051377228 -0.48455458276433583 19.91546905909302
-2.7392730353449455 -0.4411214525189491 19.968909751556343
-2.7674662114274087 -0.37550235121680564 20.040580471772174
-2.7880014749933197 -0.3345091868330543 20.07817041884324
-2.8083945011066485 -0.291229404325976 20.142433078328477
-2.8239555026217644 -0.25807497755023845 20.19916228661672
-2.84238884710369 -0.22399459432918767 20.26068401797714
-2.866180873890297 -0.18618915918442291 20.355394646628923
-2.8892165877395097 -0.1583840176713187 20.428340636413733
-2.9053483989807316 -0.14288512364067052 20.49062242119075
-2.9176723622373855 -0.13469598139960026 20.553828750520015
-2.927598361377706 -0.13323111576005187 20.633288624455957
-2.9395876123622173 -0.13237659217969466 20.70925431989635
-2.9535561871340166 -0.13156379503722992 20.782813759051617
-2.9698190036803807 -0.13318509810918955 20.871447346859743
-2.9816356353256777 -0.13607057166298664 20.935896873693398
-2.98891826470733 -0.13990872393739573 20.98618441782399
-3.000517184626819 -0.14801742389164585 21.060171341032696
-3.0230592615897995 -0.14973381538985486 21.141687181247725
-3.0332541658163925 -0.1503683606639059 21.19219423558397
-3.047929015550328 -0.15180101700895343 21.250389424816937
-3.0766779005384155 -0.15209336817654617 21.35161183798645
-3.091382187336225 -0.16210725203442045 21.43810930126994
-3.099596967954972 -0.16891697694158103 21.488273351128033
-3.12333673815619 -0.16597213418772117 21.565132098555356
-3.154946002303604 -0.14986378017009172 21.635114956380455
-3.1732395030653135 -0.1406841288038858 21.68191934060635
-3.185130708019282 -0.14686866366758777 21.74386836008162
-3.2064138274300076 -0.13219695890428862 21.791579538089053
-3.230639276313225 -0.11265068439758052 21.84306832837201
-3.2632538603504573 -0.08197188646399378 21.917870056425063
-3.287205210069578 -0.05395408591064288 21.97381852460411
-3.31805010756016 -0.0030118631691571363 22.02402459543668
-3.3495817915519686 0.06215156224994378 22.06354228454693
-3.36888071624754 0.10716723119874616 22.09025441595173
-3.3936222444838213 0.18192086884827652 22.10581575726279
-3.4179626718483584 0.2621709308689997 22.117327245207516
-3.4315509471826546 0.31415929795567954 22.135040491221677
-3.452914865264864 0.3608383335139409 22.198655534791996
-3.4798904622641276 0.41370683951228293 22.27054361405845
-3.4983396246524823 0.46266502836620904 22.2920079229099
-3.523695055541044 0.5086153179093003 22.327867019254594
-3.550552244211211 0.5745407351178453 22.350794595297877
-3.5834176364311663 0.6358423850723909 22.380655151161857
-3.6034745448266223 0.6763627960900556 22.393356454192368
-3.6537204216572796 0.7726599567799834 22.418649694262513
-3.685999738665954 0.838335229406556 22.42841169137514
-3.7146216000548566 0.89127068747333 22.436310354521154
-3.769996987771594 0.9808527302746326 22.46498531835318
-3.8109397021041316 1.0472557936530353 22.486215449464382
-3.86575120057816 1.1393097945988215 22.508019953349674
-3.9042026319710263 1.203180521727617 22.522543251335154
-3.9515489550165652 1.2788724840562284 22.540524119677077
-3.9899186957641115 1.3393784709347492 22.552921762752856
-4.028793068992659 1.3999567964106296 22.56444055449394
-4.073107178445266 1.4651973897174717 22.57964595764721
-4.107781126550718 1.506978229150439 22.596695699308277
-4.147753172593413 1.552049234036274 22.614946031546573
-4.200514502318383 1.614520836323084 22.634605124190415
-4.26723045248888 1.6731824943099023 22.670396018492088
-4.3322213983738 1.7332443705641916 22.695781587339145
-4.406045419000977 1.7897979443024254 22.726102974529343
-4.454745776282839 1.8366470542574682 22.73168480871088
-4.5075888258164625 1.8799451086017613 22.737670486279818
-4.550521900764737 1.9105051065888412 22.742879589998715
-4.620739891754289 1.959052284586307 22.744160427101026
-4.688936733560975 2.000472817324117 22.742013117220864
-4.741377921798666 2.0289509289098504 22.73805773537667
-4.804979422728795 2.0616997331135156 22.730652455364268
-4.879794049542359 2.096597090086009 22.719965455522686
-4.940313313677924 2.122519198880407 22.709812290363782
-5.003525261682305 2.149632222876603 22.69356459342336
-5.102594452292562 2.191776470011421 22.66129149414177
-5.203999222778646 2.22329242137382 22.63955115171436
-5.2716405825377795 2.2475913809551127 22.61597633149766
-5.345826850730705 2.2697811094945752 22.594270379240143
-5.397237778782109 2.285630855312057 22.577648284704292
-5.4687075851776115 2.2986221050666673 22.566938816903768
-5.571006230693667 2.3164812581540017 22.55337674843876
-5.651835289566463 2.3387602917559294 22.532347292130634
-5.725481651918532 2.362259032525972 22.51287255779711
-5.771682299492869 2.3788223349169426 22.50111922413952
-5.890665192566453 2.3996443848251925 22.485902900343895
-5.9830999877323565 2.4116037360050573 22.452363145595072
-6.033653636294115 2.4116152724887687 22.433111103053125
-6.101123591999054 2.4058133578834715 22.40804234249304
-6.180762452483694 2.389650680763687 22.384970197513486
-6.243960425775655 2.3746094895432917 22.365048050813858
-6.311571634198517 2.3589425064000986 22.341276917096263
-6.361125415969879 2.3475759767000204 22.321356589230327
-6.422930167208721 2.333567400970325 22.29463315750604
-6.46954017501848 2.32302283654752 22.274756064095627
