257
4.0607849445116635 3.510012160383405 22.06606983311132
4.015496278864227 3.517349697448462 22.101384515985714
3.9404545937623157 3.524112302251061 22.16515386925031
3.860827948628202 3.519931508713383 22.239126317176254
3.78565054515784 3.5129006467476787 22.305367794617194
3.735192654296428 3.5032638492201498 22.349222464160437
3.639963634853692 3.4783728968999865 22.42814316298883
3.5491048025199445 3.46430466852173 22.474247195754494
3.4817664368762617 3.4590659619899586 22.49666243522784
3.4049679224435296 3.4590902345066237 22.50574260605279
3.3434518176353727 3.458718758385735 22.512125483458053
3.280342878467395 3.456905415068829 22.51831776174073
3.1885220637545713 3.449612047702293 22.529402329779266
3.110783354013792 3.4398084870059025 22.539295608412928
3.0442373991817284 3.4239950443819147 22.552101392793226
2.962399397632532 3.3964060773559046 22.571386884729762
2.8888265363336023 3.3655570830231367 22.590597753719244
2.8132810971296207 3.3214172558649704 22.617640683906743
2.727200584400702 3.260504914544069 22.65663384593992
2.652473994137366 3.2111321160248183 22.681780042108713
2.6004610352140416 3.1706294878384673 22.70288076415691
2.5497553094073133 3.1256583238656166 22.727398771127994
2.5059326156721813 3.080736848620421 22.752378097264923
2.425067725918722 2.989896622246836 22.803314135186408
2.3773604031898126 2.9381718297824397 22.829539215883226
2.3431369108274005 2.902701883347884 22.845372996565814
2.310271022231701 2.866522954116462 22.86195668462755
2.264463549555903 2.8143790675500107 22.885757987898316
2.18979567513619 2.7360534575438384 22.914387316617805
2.1440039959365675 2.6894309328628294 22.929722025462006
2.0998243591614703 2.6480434764489926 22.940026120472194
2.040159133120559 2.5990869591007284 22.94609605590984
1.995102178664837 2.5605363752910195 22.95232007229921
1.9326893613843696 2.5117697386775335 22.956320376049057
1.8524320465047481 2.44859893387758 22.96031742085834
1.7701342589376965 2.3843613089275193 22.962603906487054
1.7066044435202803 2.3307319395471753 22.967307786816672
1.6688522625559956 2.2971719746433683 22.971359607797744
1.6277631236897092 2.2674962186848893 22.968591000561965
1.5862083743960793 2.2394261278777234 22.96374679089534
1.5479326955257633 2.2071841290282785 22.964113921563328
1.5071713665387036 2.1719733610247287 22.96606414053064
1.4695099116398087 2.1350473037267497 22.971011929097667
1.428417665209951 2.1025374658358036 22.96840228125643
1.385068036710041 2.0803015432966534 22.95377181882397
1.3375493597046317 2.057681393981734 22.935203816417623
1.2814067697447389 2.029252272701794 22.91357781051934
1.2295398579578138 2.0007709537465246 22.89351478234359
1.1763123964347943 1.9665805608844158 22.875832301497976
1.1141572326076845 1.9507530527105583 22.82992326628198
1.047116990199363 1.9248614501987964 22.783964679612183
0.9775582353435122 1.8972971671119634 22.731828855893685
0.9145037408450623 1.8635066132446862 22.685247841390954
0.8548736653235542 1.8280632124809992 22.634927807993364
0.8157000459756911 1.7966421481358577 22.603568493955464
0.782518825030788 1.7683885940639517 22.571883599090246
0.7478809483998139 1.739645944159574 22.53349005624612
0.6935984856016664 1.6636842706839303 22.490240037709643
0.6601290950349574 1.609174055850354 22.461987970451396
0.6313006979949163 1.541209494901346 22.4495321611644
0.5919081924716865 1.4461553897230326 22.418191217893717
0.566497513726518 1.4072494764435879 22.351581473601662
0.5448944688416304 1.3737110115614302 22.269995612994553
0.5322714936099009 1.3506825036037835 22.19679155304343
0.5249729271397381 1.32518934341046 22.149156482552847
0.5152987834265061 1.2827034989674724 22.077561474263867
0.5086703510263024 1.2356155396573678 22.038070427634455
0.503934978214964 1.1858815140164962 21.996913135495987
0.5014683989354303 1.1452351626502848 21.95488065852179
0.5029544891380098 1.1154402827929006 21.895850680915444
0.5058838168786839 1.0745959335016915 21.832336694998425
0.5076415154856495 1.0287587010903847 21.776774438691234
0.5101898403435754 0.9835903360062241 21.724968359064075
0.5184911501826266 0.8956846375179959 21.645890383084147
0.5289613157316075 0.8668555790296812 21.589255545723915
0.5491594097318611 0.8081887021983309 21.499626900065532
0.5662539970258667 0.7750788779892401 21.432343790381072
0.5791953398830036 0.7500116874017904 21.3859784626909
0.5974832342874408 0.7251214459247075 21.32162435181187
0.6244372130285749 0.694166986866291 21.23058853234725
0.6480533231876444 0.6810230607412855 21.146633818611217
0.6765665658414097 0.6774484230464504 21.04738659638227
0.6934304617779101 0.6825160569885993 20.978354405835333
0.7079244238109712 0.6881134061095144 20.921347659839103
0.731431771064387 0.6942396666230417 20.82862141435376
0.7515444142206362 0.6873004589768836 20.763659990475972
0.7663224176257237 0.6814524367285371 20.715223128682698
0.7902994278306561 0.667504920224725 20.641141046099754
0.8113784560178428 0.6508734112339294 20.58177707648358
0.8406998761727744 0.6329158943373043 20.49600454302102
0.869693068112736 0.617479552609141 20.41144469672185
0.8879553142796157 0.5995161977136547 20.36554969374602
0.9073975583859746 0.5939266694124976 20.30343133182013
0.9484032766594359 0.5382171087002536 20.22442176758613
0.9710702129625084 0.5128781800349893 20.175775169291366
0.9970047174854326 0.487418149016702 20.117763619894387
1.023184145402938 0.4610187025373724 20.06102766034842
1.0478775746463744 0.43593675178138636 20.011584730729627
1.071044027867267 0.4161006126946374 19.953272946956794
1.1025243297226843 0.38236883606432137 19.886710478090897
1.1324954079662481 0.3497289051754606 19.821732424087642
1.1630818123555893 0.3170555694571915 19.750369808289722
1.1928720348944453 0.2999741695627449 19.667749446287942
1.2248296642678531 0.2863679627286535 19.57437520498965
1.2566194613527573 0.2782162248562772 19.47810272340128
1.2825833580833683 0.2644087520509073 19.41032305409055
1.3051034989549366 0.25287510649219946 19.350768639831927
1.329895325508761 0.24554280844312437 19.27745672838193
1.3527537124576263 0.2219755999663917 19.232309404412998
1.3804076325622565 0.18914595260315803 19.17652801596277
1.409166486746787 0.14652153259815837 19.125951983514202
1.443756641612642 0.09918267487691246 19.065163970883
1.4747552225211644 0.1022035965457766 18.98294613928582
1.5083676854614854 0.07472935079840859 18.91793304108462
1.538889751651124 0.06492491523804755 18.85235293379341
1.5845784718369045 0.07430547807035914 18.74770469828794
1.6106101788006375 0.07389183867979288 18.695817704867544
1.664049136338497 0.07545979722178409 18.596068092628958
1.7134460058066179 0.0817407827584491 18.51013822871608
1.7699228320803757 0.0688691041236913 18.434068832142234
1.8038338123881819 0.05629146105062777 18.3963167315058
1.839988091740077 0.0372923994452492 18.36252393936518
1.8809091333672947 0.0155631190610519 18.330077047512034
1.934154613202354 -0.01276108131910103 18.295434115486
1.979678325594018 -0.04219696109573601 18.27724766402514
2.0171667105953635 -0.06643688454928132 18.262271360325503
2.1198116269913756 -0.12835277852895022 18.237342040518016
2.184176169235341 -0.1673826848678619 18.231957941698692
2.2680783547082575 -0.21898474245112354 18.231647023480114
2.351825092704658 -0.2766585438584075 18.243179296579417
2.4123068459134682 -0.3262219898366001 18.261308476257895
2.453712541702112 -0.3627659705973434 18.277681991880904
2.495222317938797 -0.4025449332844664 18.297510613028894
2.53734574684643 -0.44039283036861754 18.31802814308696
2.6041132864113186 -0.49612150719624815 18.348301795008734
2.669391566647662 -0.5390081737692509 18.371939953488976
2.742120680968209 -0.5790859431250839 18.394820255616484
2.825110876475807 -0.5918070343741184 18.396733394837486
2.887657090100947 -0.5923279503035204 18.3928616467961
2.953780204437342 -0.5835610490988419 18.380614767909172
3.024135845814267 -0.5754839978569812 18.370007090240083
3.0641709331103977 -0.5743296756585927 18.367072422994454
3.1112438589356337 -0.5729723534254627 18.363622059457082
3.18169457493772 -0.5682192519780171 18.356313779052975
3.2375823789140483 -0.5692232678431903 18.353739083782493
3.331258664129213 -0.5698350618451524 18.350157307449024
3.437444929418148 -0.5633611918592618 18.338634439323293
3.4945646034206694 -0.5673694689656963 18.340822859985995
3.5584056720124915 -0.5797203538529576 18.346160808206943
3.653499107987437 -0.6054333206279439 18.36436989682286
3.738498632518896 -0.6382699831385157 18.39177870328413
3.7832931612322707 -0.6593350779025378 18.41042718644965
3.8479406936954677 -0.6876890781937837 18.438402045257387
3.902546481406702 -0.7098278213579743 18.46174205432341
3.9494644661311717 -0.7267588074287938 18.482144867353227
4.020800580085527 -0.725841237575056 18.495451625446762
4.09396954914299 -0.7202938169691517 18.510123522728772
4.165363992341943 -0.7123474850740283 18.52764385401242
4.21746194881411 -0.7079646311580641 18.546226591811582
4.281182219776087 -0.7017291598826048 18.572128367010045
4.335262526696497 -0.6996368849372212 18.603415244429595
4.401929216040854 -0.6931557800300259 18.64414104742493
4.463009834189058 -0.6869223490461529 18.687945575754917
4.522050523098351 -0.6695275914156391 18.728542746043395
4.5701821815254435 -0.6546302784391917 18.765935696858076
4.6276574752692445 -0.6362371094487385 18.81576068624347
4.686136993456224 -0.6269729013772238 18.883072022242267
4.7326492473463375 -0.6126342887450598 18.933167623421365
4.794709706000505 -0.5793262204245195 18.98806380729781
4.860408785643221 -0.5531084373313471 19.063497722991634
4.907314945569483 -0.5335628749922798 19.119560644708642
4.9537337903419845 -0.5126049460563102 19.175527108309783
5.006682813724783 -0.4786937857617275 19.230796787022644
5.042308036246183 -0.45941575833291637 19.27429231685335
5.072347866839511 -0.44281477304086625 19.311432875016422
5.123330577391529 -0.40958644028070657 19.371342200160566
5.162993043158702 -0.37257473269214225 19.407348940334657
5.230072110868092 -0.3125172287324358 19.476477207237053
5.272899419062132 -0.2846137886617708 19.53194122184422
5.3055675650071 -0.23682674986922425 19.551747465444148
5.351167700781035 -0.18596864223958942 19.59653227687745
5.392036977372934 -0.13992029900719505 19.63875443994538
5.431269650387485 -0.08920092613715358 19.67634204850656
5.468695748914339 -0.03693008617028681 19.71148991382853
5.504321290057998 0.01896944019296054 19.74247100876265
5.538380139667832 0.07381518547701926 19.77342615553755
5.570543671491548 0.12441742592870852 19.808945537497408
5.601318173361105 0.17423556071299462 19.844503174074017
5.630043609259412 0.22197532906825135 19.881464305276086
5.657231659775269 0.2668066553821786 19.921062710813636
5.682247436035039 0.31151472724097395 19.95906126019464
5.7054272203236 0.35625510142555417 19.9953349943129
5.727603500589468 0.4037041249079616 20.035348230949406
5.749255473585112 0.4517584593367685 20.077940547378965
5.770439610720287 0.4994554224265704 20.124594128483945
5.785429475453753 0.5398274823800842 20.166584611902525
5.803632260064286 0.5836387765916129 20.223556425963775
5.822213714147139 0.6640188951338022 20.27688443808507
5.8335396359886555 0.7356725961458936 20.315501545765844
5.844816548494391 0.8213301278460214 20.363259847627663
5.853318318310506 0.8783644540580227 20.41099425292978
5.862514093562996 0.9324515651482796 20.457046584061366
5.867087576762494 0.9998134429735765 20.508511998868016
5.8707006490034335 1.0436501280169095 20.54431380335569
5.874680809526696 1.0984953781331184 20.589896199672776
5.877465897081354 1.1504479454881507 20.636611695054903
5.881890181098511 1.2109092725719384 20.696366355899134
5.882991314504855 1.2468270314782997 20.73469467056867
5.8870905222821275 1.2844536080412974 20.795727196281234
5.889160389953005 1.3186980328746944 20.85165887520829
5.892433193528899 1.3695329219495918 20.912350068600382
5.893694251309854 1.4127720149409342 20.966370435190242
5.894650883115343 1.4687191609575212 21.037118820091486
5.894460252346553 1.5010123734413936 21.078134298483963
5.888809211860576 1.566475925299538 21.124604978993514
5.884873000923724 1.6195030048063224 21.167734315880097
5.874895425789659 1.6867232531380685 21.19793054958857
5.867123185002532 1.7472699777211842 21.234761534301132
5.854530064825663 1.8252579871957613 21.256384172774805
5.845786311005635 1.8785448756296814 21.27977918883822
5.836242009532564 1.9322981735039901 21.307682171013898
5.823187178219564 1.9984951249847507 21.352726397847103
5.8122006845647824 2.0446919465233 21.37853461494658
5.794996773742759 2.107404035926969 21.41608684865126
5.779271947001521 2.1564279711916425 21.436029192831125
5.758249714316602 2.2124049154261423 21.455731878580643
5.734571800799629 2.267531929548107 21.47494384788706
5.708735495510334 2.3204242925023273 21.492812798073494
5.679364765079672 2.3736628947503133 21.510167443080544
5.636277324493463 2.4419831364621896 21.537388435431115
5.573020388923092 2.525664980465387 21.57677728705249
5.516344098368889 2.5908615629650393 21.612380602947944
5.4678748805296555 2.6403895832204656 21.648970660935294
5.405221642651919 2.6987913591326977 21.68438269449659
5.362932077289488 2.7337314678786653 21.72017875247355
5.3161698712401275 2.77300602196859 21.7363455226994
5.256950950210387 2.8189184285312265 21.76422465103436
5.212693800462238 2.8525635120209545 21.776955176010087
5.1511512162787385 2.901805573049165 21.781761663789467
5.093995634689324 2.942846431444453 21.794429408752553
5.035579110016809 2.9831582934251184 21.810175804303
4.973267609993827 3.02516826132359 21.82472782979096
4.913588576120435 3.0673333978328454 21.82786774430369
4.869928107218437 3.098998440579374 21.825606149936387
4.827350717823023 3.1299109879930382 21.822255855011115
4.782240279971353 3.1623410187167815 21.82002549116194
4.738854350045358 3.1921114289432895 21.818799962641073
4.6932725068571735 3.2215401184260264 21.820794278052134
4.625876285257407 3.2633566092247657 21.82966356694314
4.564843462674185 3.2993583705504657 21.84104337545197
4.501869700994794 3.3357391580062847 21.852506374251
4.42016939275775 3.3800937686856507 21.87251457515404
4.339501207176742 3.4221185007893675 21.894142901825255
4.276983875723786 3.4496611192760023 21.91754686221888
4.215087106380881 3.4785726893362723 21.939723861774368
4.1397048934553595 3.49600464739418 21.999029685679844
4.099070831079 3.5072040331301126 22.026330999826907
