329
-1.7676899488831483 3.501940274390259 23.5266474724632
-1.7618551570923224 3.5663231901346513 23.550382754646737
-1.7562016171914867 3.6255195254935386 23.57475179674048
-1.751756231949979 3.676372247836356 23.596678129242438
-1.7455092289630696 3.7382681279217205 23.622336041770367
-1.7449584478618378 3.802864549223093 23.658881736151447
-1.7463421926843785 3.8684830462638735 23.697441021383664
-1.7510821404387134 3.933859285196109 23.738107533085312
-1.7602803189376055 4.018793754196013 23.786623665559844
-1.7683198637636175 4.082866333564462 23.81672089678386
-1.7799662412542188 4.153666874879486 23.847126193755514
-1.7937536717259697 4.221412403868676 23.872029834452615
-1.8119696945703536 4.292476213293899 23.890605355142856
-1.8423886429942264 4.391070879110394 23.911221937448946
-1.8750185847949798 4.478874589324443 23.92333477637696
-1.926930955808594 4.568711688026793 23.944824844159914
-1.955084951387588 4.636622498190745 23.941135241800644
-1.9996093688455243 4.717336088392946 23.94108143218978
-2.0465217264065103 4.779516671713301 23.948129303091054
-2.084336175566477 4.8243173712764555 23.95404690161893
-2.1382119633738865 4.882086066395528 23.964060820350067
-2.1924289997196884 4.924446166415558 23.983420783921265
-2.2327218265531763 4.955553002122514 23.997887613037978
-2.3164076857426137 5.012310056944603 24.030331519882473
-2.383874177944326 5.0479121531523194 24.064645931988917
-2.4500775261713823 5.1059322588847 24.075489166183512
-2.489747545102602 5.156268972516088 24.066030451945718
-2.53746048920561 5.204807505355594 24.065301543961684
-2.593392582681475 5.260480026448933 24.06422077278599
-2.643974343178424 5.309675982460249 24.06062124147692
-2.704932394893515 5.359049221899214 24.06899637902423
-2.7450211982267585 5.390203348253927 24.07486115797777
-2.7845755827269745 5.421311043747053 24.079995348618272
-2.836533898649216 5.466400453412707 24.081278702562827
-2.9245245584591135 5.537641645300917 24.085138399598417
-2.9836236194059227 5.588130463565502 24.08569774824925
-3.0676421426319123 5.647975026292627 24.096154861520535
-3.118604241161935 5.6870363323396464 24.09542631859745
-3.1751742668426695 5.73464047597562 24.09537504398312
-3.23691586345976 5.7791625150912935 24.0963869166759
-3.3085578338085693 5.8358320275142574 24.09578271453756
-3.405716955351605 5.9080116405647605 24.095835507359048
-3.467527948339227 5.952195414650882 24.096779317578306
-3.551361094529066 6.003077192590192 24.108878894024205
-3.6044751987978563 6.03977913556901 24.109115783486878
-3.659150055980532 6.079012281992281 24.106544764020963
-3.70546405231168 6.1045058222801085 24.113954053260986
-3.7668462679035897 6.135283124128966 24.128801538231134
-3.8334556034575775 6.196002739429748 24.10238300883952
-3.9035612586248933 6.239680783118491 24.10407088096742
-3.9742101815275768 6.283708777803156 24.106402625313784
-4.019998663118152 6.316717075481657 24.09458914043429
-4.101102794676157 6.378995235431315 24.067519754190926
-4.167337635318498 6.447637893297339 24.012247686433547
-4.208504672957397 6.481719670153723 23.98655419619086
-4.275955849564279 6.528939333169699 23.949190594596786
-4.323770744559494 6.56079755632647 23.91928157736252
-4.378973227542462 6.593362153033473 23.885020529222654
-4.469123200654923 6.635669660469791 23.83353529026716
-4.521280092482367 6.653503135722342 23.808591292367424
-4.613901828365857 6.678267293294528 23.767401143491192
-4.674465582050836 6.689617893766606 23.74334152485382
-4.720853948057707 6.702701060789263 23.71809600545557
-4.766636574681127 6.712909192667073 23.694471566470042
-4.8390232499349 6.725512702688748 23.662112226778152
-4.921049516313441 6.728492176878362 23.640536419177813
-4.998072294334862 6.737800174828216 23.60761092322416
-5.076440775718406 6.746937281541356 23.572183401736595
-5.167806122145645 6.745900630371061 23.54605702341983
-5.229874231206682 6.750662535356026 23.519461977804706
-5.29299318456948 6.755887233482309 23.490695434663984
-5.365574794605645 6.754212723222054 23.468332358182774
-5.441714465722227 6.738398474661279 23.461832353510193
-5.510676776596153 6.72373183493564 23.45565369744669
-5.602216491403546 6.7028867110930435 23.446726383888585
-5.653071091376768 6.6935048790663245 23.43782937070083
-5.701334648287201 6.685484540315656 23.426788020109928
-5.775872223658477 6.673481817357835 23.410317463674932
-5.847680134890879 6.65792889235064 23.399797516811702
-5.952170718252678 6.664573898910589 23.340574235094888
-5.998580229136154 6.666232885787963 23.316958942817404
-6.073281596836991 6.6634081655327115 23.285076897418538
-6.1475779524158165 6.6504588836930765 23.26448546607018
-6.2095352946214994 6.637797102912632 23.248978266773968
-6.262467639677745 6.626631842751571 23.235201616131487
-6.349900631491389 6.611419123644442 23.206674972475675
-6.412738706093288 6.5901112856629265 23.19708474720658
-6.47543403049103 6.568702784296807 23.186242996219683
-6.526938526490557 6.560390999240912 23.166889610025553
-6.615068995060106 6.544325951357067 23.13571801402939
-6.678026721234745 6.531687786769464 23.113942617303472
-6.753469660720036 6.512711566913623 23.09005395968347
-6.837701638719985 6.47848623081628 23.07287849641038
-6.936960054939344 6.428911166859088 23.05767586119262
-7.007108533514659 6.38438758777702 23.05338958400172
-7.07440696218865 6.344396946523386 23.046306230723403
-7.141004529751224 6.295277008331809 23.046429943421213
-7.185218627208204 6.258695036351812 23.048923298271966
-7.242431505063013 6.218114023554703 23.04454382420577
-7.292646997003 6.181701775679166 23.03907097431779
-7.341959928175184 6.137588600618759 23.041264281655923
-7.399076606058593 6.098115822899157 23.02777664044069
-7.4414369001123015 6.0533333503886055 23.03156280411639
-7.491098063797359 5.992346610415957 23.04171528731845
-7.532725879560774 5.944773476265585 23.043700936843305
-7.572829507674394 5.8934068333747796 23.04888191630102
-7.610860929630312 5.837564124682647 23.059586713068036
-7.648209391990176 5.78040800772569 23.070493427525093
-7.685239321523491 5.722889531257794 23.079386355441073
-7.722462016164546 5.6646302583001 23.086602987696153
-7.761074255149537 5.604451751956011 23.09080952518672
-7.796323472562075 5.549010184594783 23.09422548835078
-7.834573170190766 5.487963826983094 23.093997472494973
-7.869344334487972 5.433022929368857 23.093785207127002
-7.896086440141089 5.38279132872802 23.098028759681487
-7.919697078778127 5.337839736503986 23.10267291458346
-7.943273925733217 5.292178582717451 23.107940954742237
-7.96608024402503 5.244072294452689 23.11557282594231
-7.989134505316819 5.1971524201586465 23.122416337511417
-8.020108511023201 5.126721224274368 23.137759545746757
-8.047045255669216 5.065682621028049 23.15045045790604
-8.073470927985257 5.012192155306495 23.1548143839338
-8.101887942017594 4.954723874279225 23.158825991766008
-8.126617518979685 4.90164724975236 23.164054559752145
-8.16005481568275 4.833294070053746 23.168923951114742
-8.191271968912634 4.772538823799977 23.166810325669214
-8.223185316899263 4.710954776942774 23.16402312805544
-8.253440324569457 4.648099392076075 23.16532667328362
-8.287665188778096 4.573309628123049 23.169981119785138
-8.32267802073921 4.483921630106414 23.18949579379867
-8.342668103294768 4.434068362977225 23.200914764948664
-8.36839201854634 4.367882876692253 23.216178679700246
-8.402826372616246 4.282056889292292 23.232831938486328
-8.43366417448422 4.218379146968278 23.224532235824505
-8.468011876205502 4.150687467082609 23.20983185427299
-8.497876018912335 4.085813133081571 23.203255350933755
-8.530052589739963 4.020407206860405 23.186063392411555
-8.557793026026326 3.9626427408332003 23.171254725516793
-8.595939385657667 3.8786448664929423 23.152094764838875
-8.623395095961238 3.812650593294418 23.142056506373127
-8.651770654319753 3.735529905782536 23.14542926387232
-8.668679371176976 3.687187404406983 23.149784619827358
-8.69316290024245 3.61652440726171 23.154896783913685
-8.717299379205937 3.5462778517905993 23.15636176382646
-8.745194451332122 3.4640677469804584 23.15511229137137
-8.777774737061812 3.379042519041779 23.113374372516756
-8.803743496783703 3.310728553392925 23.059904893688138
-8.824215964211959 3.241858602325759 23.035011504084828
-8.848665795793245 3.1582183085470112 22.972325465836217
-8.86375424305076 3.085936721780462 22.943615591415305
-8.876197644179253 3.0105710176776195 22.92880795053473
-8.88365008916397 2.94992419219095 22.909084568958068
-8.89036952181816 2.858243546753069 22.890397249666744
-8.893997852162931 2.7349334871680884 22.90469891292818
-8.890870738563189 2.6333892140724324 22.903599491530603
-8.885301403160788 2.543757184240771 22.903997683273065
-8.873634708007707 2.4565430075698145 22.894054163404004
-8.867947372852756 2.3963618282126924 22.89343395841422
-8.85665609236203 2.340910149744008 22.876365989675474
-8.842217001084506 2.290104398772281 22.848313359760652
-8.81635761471814 2.21500925150579 22.798054604359404
-8.785058263909812 2.132562341345358 22.748887542568383
-8.751989538051802 2.0832855399194234 22.683322256845447
-8.725089422614396 2.0443363434292814 22.63552372127752
-8.684959799269446 2.0112635866509163 22.558945192643737
-8.646348534971722 1.9651677032193073 22.502080985766465
-8.59149320791524 1.9153884345150325 22.421098321143635
-8.53947585830255 1.8763694109731932 22.348917272377747
-8.501624722393041 1.8467880615136925 22.30147361480267
-8.463362376359768 1.819015664175455 22.255602217686377
-8.40130792304254 1.77495891553589 22.18557162438397
-8.323528794142062 1.7332955176643714 22.101489204513744
-8.273171924973305 1.7293229506903844 22.045008851061674
-8.21178469185673 1.7131121226660144 21.990660253063478
-8.155729927026528 1.706625040877101 21.943335927844902
-8.103235239620826 1.7000770495482755 21.902865808630754
-8.02461765827129 1.7008289253357831 21.84300291767362
-7.982540581566636 1.6973806721279296 21.81550033733846
-7.938293624769677 1.6960358733082121 21.7869761891599
-7.85090232785896 1.702119215371399 21.72624039984885
-7.776557591443287 1.701107821723101 21.680752397404163
-7.718792868102589 1.6932036981480114 21.650934717213566
-7.6627856683524636 1.683988027628605 21.62380764731253
-7.5628476928480275 1.66106507029084 21.57859347531042
-7.487884936536632 1.6570841423005267 21.527858393524745
-7.400819844430188 1.6503408041809737 21.465116453486445
-7.347300349479978 1.6421307786496242 21.427805010462745
-7.299941835255167 1.6415924720329076 21.383088772148298
-7.261734255877529 1.6473716387193176 21.336120968353146
-7.233009292666858 1.653352569086572 21.295600376482692
-7.191963143181268 1.6644518752713826 21.236091253791958
-7.138398300858446 1.6647841031669892 21.17293886182271
-7.036872913297563 1.6500418209459293 21.069476007679462
-7.0104427839505785 1.6704338033457051 21.007915515507722
-6.98957069364216 1.6888700867018742 20.95616207415123
-6.960651467126344 1.7057384454371278 20.896614301019728
-6.923488426467977 1.710278941212389 20.841577705570305
-6.8854779353199005 1.7293611196729919 20.763105789579743
-6.863552275774097 1.7438326598851375 20.716405543739867
-6.832150562594149 1.767342347813973 20.64097175391737
-6.805709716535086 1.788806105057414 20.57792951814045
-6.779068408809416 1.8032266150033203 20.521983354770857
-6.758395195414363 1.8194359871426733 20.471885410258906
-6.739799319010033 1.8350237340965365 20.425930590508525
-6.717867289910712 1.854560658627737 20.369177137739115
-6.697731247916906 1.871968957452267 20.317964303071562
-6.676656169181242 1.8865447350944646 20.26938854608064
-6.646092216984027 1.908583840079174 20.197786828345716
-6.617688176747082 1.9275891278903967 20.134219355761143
-6.582625723815629 1.9405391159369718 20.068948415918776
-6.547787851573557 1.9543544827824895 20.00380879504664
-6.51624939904044 1.9713297800329088 19.93888536677942
-6.495389376707279 1.9840263857657425 19.894144482263393
-6.46399681448846 2.0026674575942924 19.828733334927097
-6.431947836239475 2.0213793663840165 19.76149611442888
-6.401336491923838 2.03463307716186 19.70520010554324
-6.36994572646616 2.047439767051587 19.647493153060474
-6.335934256398459 2.0608417734086175 19.587531101439637
-6.306807180229062 2.068941963207384 19.541358679002197
-6.265603660419166 2.0793987720824822 19.478722473182714
-6.221944186849696 2.0858001380381563 19.420333979021034
-6.17043128978439 2.093615136627213 19.3539797675734
-6.098494762890657 2.094303924720163 19.280028951131587
-6.049466100810648 2.0941296355538594 19.231451482991194
-6.002214828777916 2.098127188299437 19.180805607714227
-5.9576921187033784 2.097784471805293 19.141910528492744
-5.872652881615009 2.0935839165831838 19.06674586956629
-5.8315709120292105 2.093145209347908 19.032875232094646
-5.775477660330339 2.094282378387605 18.99009361791471
-5.704134727618963 2.0976475595156283 18.944419708555664
-5.658630894649609 2.1103259650669135 18.91308070850123
-5.576750797326193 2.1302316030999315 18.874242066926048
-5.497916234147299 2.152534683351923 18.849285126813104
-5.445620846275592 2.170204357721389 18.836168478089416
-5.393427222127515 2.1849253586207955 18.827947503102312
-5.317391101171683 2.206185093619998 18.81900874876511
-5.189582440289467 2.26489120785777 18.803756623661517
-5.123865694320341 2.2842042769977673 18.807770504652616
-5.071999481157314 2.2972840878121406 18.813819848990644
-4.988687888478534 2.323181300449947 18.824543376309943
-4.90645725418495 2.345469494571835 18.840099072550203
-4.841568963142136 2.3637109213626872 18.853724488918054
-4.787661225970249 2.3751080360538706 18.871647905341757
-4.736997173144125 2.389366174076709 18.88586979632711
-4.662465816835707 2.4131144872901253 18.909048874639023
-4.583092619438272 2.4349397573848406 18.938611735042652
-4.486209690286029 2.4729416833182074 18.97449086566303
-4.4124959216294135 2.4891810403878254 19.01233622162518
-4.366062731626115 2.491184625024673 19.04158901276631
-4.319492178506385 2.503213369704944 19.069099634150753
-4.2667456060256175 2.520076802942653 19.100328861478086
-4.200303226954784 2.545037793980042 19.140397441905296
-4.106638238640044 2.569686511378262 19.2063739414742
-4.071437964526598 2.58057428707222 19.23193212017989
-4.028809655501967 2.5939249987299626 19.264565040926698
-3.942129285184563 2.604514523250742 19.341619560290106
-3.8863415154155683 2.6056246916502794 19.398507248172827
-3.8379817787169412 2.612300140192969 19.44528430627045
-3.7893881555286693 2.618863421423858 19.496241536505906
-3.7324195120144963 2.62967745249083 19.554593409854782
-3.678374406912694 2.637813060652531 19.61369308260753
-3.633544297800412 2.6461210777067294 19.66243950847455
-3.5939754620097872 2.6547735961059282 19.704912678977102
-3.5513070280324857 2.666020904253988 19.74906206589358
-3.5126261706999675 2.6774306855230203 19.792026861038135
-3.474161525134829 2.6681008047688377 19.852930541532807
-3.4481482262660292 2.6624401823988992 19.897776468465587
-3.4213455935350585 2.657141607058788 19.94267259660638
-3.3942431133098148 2.653861674775387 19.98783305446188
-3.364876773320032 2.6538323283549743 20.03083165647306
-3.3255518524119325 2.653043657086594 20.09197054885863
-3.284537154684215 2.641870001334109 20.171246682209084
-3.2541775192194557 2.639469210815309 20.22302952602451
-3.218698428314945 2.638246203780238 20.283368134617962
-3.16616249215797 2.645736281790166 20.357942348061012
-3.1238670043205867 2.6457291222416903 20.426563645988324
-3.09077337825715 2.638896848375444 20.491716058215047
-3.0629977447431194 2.626774296941782 20.555065106257594
-3.0309641090221464 2.6078395376504138 20.633866933434238
-3.0090311701530155 2.586687213224676 20.69846508917686
-2.9938241332688613 2.5702233560953753 20.745041450639587
-2.970998935278664 2.5466199028491316 20.81345160626885
-2.949716841583291 2.5298429835844627 20.86871945138813
-2.93184778835667 2.515645916325752 20.91510471264971
-2.9137525530440933 2.501269350501303 20.962076037111853
-2.893105488326498 2.4849415547649945 21.016221743227543
-2.8522764968583934 2.474471379441168 21.096598318949763
-2.823084606357175 2.4674019613724094 21.155121925047162
-2.7862945752843604 2.4585445300900948 21.22895073766323
-2.7641727782231413 2.453458499809354 21.273546808445268
-2.7324808100913116 2.4496126714926985 21.334656288470406
-2.6842413495594886 2.443496923492018 21.428943993979157
-2.6387360460037343 2.4363503861843925 21.521440950004553
-2.5968403427445996 2.4422290809934393 21.59664991093727
-2.5533463336311737 2.4390407348180365 21.685013229585426
-2.518024029261702 2.4352960831344856 21.759176783614883
-2.485566702704757 2.4367361179736338 21.82469263380111
-2.441912765160118 2.4391613031002444 21.91370319567837
-2.4039298353630243 2.4396632258085975 21.995273811822447
-2.3726324233935676 2.4437312478899664 22.06133419353763
-2.3423726187805074 2.4526727097801735 22.121959059164595
-2.3176319991929337 2.4593718923466965 22.171634980340205
-2.2828733775626557 2.4585926669190568 22.253573700824983
-2.260632108240853 2.4537883604061848 22.308627187856725
-2.230172901379797 2.442635429881246 22.386696454296253
-2.200769638233015 2.4429143474269908 22.456155939838933
-2.1739891585738538 2.4359198284162953 22.523512171974012
-2.1412619894135148 2.436010476116395 22.602426911094383
-2.0977521558722967 2.4364551644337697 22.70880600041761
-2.0622473904846563 2.4640462507925744 22.78670563570115
-2.034790036014058 2.4693662454645406 22.85169768980163
-2.0076734877620495 2.4923033238348533 22.909419447789976
-1.9772256754103146 2.5259986404188814 22.976729931577264
-1.9437138496416506 2.5681133949797847 23.04980579684961
-1.9209647919370432 2.6026977471079644 23.096498841749277
-1.8901638638031826 2.658071606099727 23.173416843522556
-1.8789445228709134 2.6887863296878174 23.203462023827594
-1.86110838770936 2.737615517974749 23.25122712312959
-1.8482048900711745 2.7920575931814517 23.306645540388555
-1.8382464907423053 2.8499390231775164 23.347400560469506
-1.8321587619564195 2.9028576636081254 23.37476243460014
-1.827351982434453 2.9712126381995376 23.41282737985316
-1.8240831848135168 3.0302614027495314 23.43966625777995
-1.820528507493198 3.0965057680124413 23.463185452164318
-1.8157837002095678 3.1647603197279106 23.481975115764975
-1.810858177672853 3.2168916247774084 23.491248906234667
-1.8048249312978353 3.2856597450009963 23.505371234547436
-1.7879612240513318 3.3663282367315914 23.503104690803386
-1.773284427099361 3.429425733163829 23.505844973119824
