484
3.1152251626455367 -0.3779637447955029 24.354387195118516
3.087671255949522 -0.2785353029640296 24.351345184506716
3.06852900751384 -0.21580882886787567 24.342482768504002
3.050391117571509 -0.1547047336983196 24.338849087092843
3.0320176947029354 -0.09532775255943893 24.33572715537234
3.006453705238237 -0.013321466343250599 24.333639056937034
2.974020744094907 0.08698463582589344 24.331956394910925
2.9542396199415637 0.14618325189189996 24.33467060334291
2.9334363813684408 0.20825471146577001 24.325883033902773
2.909638034517073 0.2781309942215975 24.317647354861375
2.891297442515009 0.3299516145797483 24.31869216157995
2.8698179861536643 0.38997726652885945 24.31904363327506
2.847598512278844 0.4511488405704531 24.315612926159258
2.816193633600508 0.5367934478378906 24.31110110019013
2.7864101262877483 0.6180581765178816 24.299241239802004
2.7627066719714115 0.6773832084488474 24.300827099514073
2.739496483159158 0.7393256602718372 24.298623015576474
2.7163601069822074 0.8017888270930777 24.293089583618556
2.6892386445683325 0.8690362958454916 24.290694602330568
2.669298012112386 0.9195736553373299 24.28982522946444
2.6452412837638226 0.9749932805211623 24.29908856534553
2.60086819867769 1.0756098519495856 24.320048525870742
2.565348048664829 1.1509747342494414 24.344012270713336
2.5381512488075906 1.2110241868419775 24.35460619888426
2.515795241064126 1.2602184799025729 24.362854586047423
2.48910597310936 1.3204739084917234 24.367805956080577
2.4556947902088226 1.390234642304951 24.38603654694472
2.4288647930922505 1.4484575528659578 24.395234782855834
2.383006373709092 1.5468539626514177 24.411832419032184
2.3457510123407066 1.6232861544433144 24.43124097306893
2.3071736834454977 1.7000653447145577 24.45723859511235
2.272712961315014 1.7653614523374115 24.480917999993668
2.236607045548045 1.8312246308699702 24.5101643283113
2.1998831190806736 1.9051197141627156 24.53122510209844
2.173606885235312 1.953993175953049 24.551436767794215
2.145247034444933 2.008642089380034 24.572324109734765
2.1201466579471786 2.055600371097153 24.592380756954864
2.09498622908509 2.0990391117779996 24.617521371527953
2.059258981925957 2.158070414251486 24.65988969406757
2.0335184328118805 2.199307968792679 24.691405550540907
2.0039046403081566 2.2468721172490005 24.729063777617757
1.9700194270865519 2.302176929002659 24.76997558385461
1.9243483483343016 2.3799196325990124 24.821875976015736
1.8846579598906195 2.4514411843343877 24.863777191827328
1.8345373844817714 2.5456357366854707 24.908016368374994
1.802915209922702 2.604725203166036 24.936861951078562
1.7644083269116737 2.6808486965474367 24.968575266288468
1.7210952248920586 2.7635418049198046 25.006039281915278
1.6885984124246494 2.8307374283555893 25.029555298946594
1.6614926884777057 2.8920618671723144 25.042049248671233
1.631959747311963 2.958289456837001 25.05418158569519
1.5997342545534181 3.0298051920819047 25.070237265767187
1.5580051058124342 3.113069890980637 25.105368482704872
1.5270119271953715 3.175582608499325 25.128381359580363
1.4964640188125147 3.239119781900003 25.148260194729346
1.4655182421406197 3.3028089741513655 25.168772522210165
1.4386255264223502 3.3578169383525047 25.18679819383038
1.3945176714024479 3.4491849407383173 25.218915973501897
1.3593949192306574 3.507541574054599 25.25160950183324
1.31797095611561 3.57496634212717 25.296114926157827
1.2722005874690938 3.6440904480544827 25.34939358979936
1.222359207086643 3.7280119779567533 25.393921098417746
1.1902405691687687 3.785074681734087 25.421147585826734
1.1566000246989319 3.8413700777909723 25.449809499830078
1.1220778063521784 3.893778638425313 25.484308801872135
1.0885398179140267 3.94399078322808 25.518246848756522
1.0538566370042024 3.9987311792863833 25.547761697812998
1.0208179599209755 4.053248833248101 25.572329391464915
0.9911766493229788 4.102582470593577 25.593740048513933
0.9546667793211414 4.158327899613783 25.623121022025312
0.9209102154452886 4.207377593622177 25.65159925858724
0.8744151332016163 4.267351687248744 25.696087835490943
0.8119856532725844 4.338669802147282 25.76008843479669
0.7721494602511552 4.384436324565308 25.797558319216968
0.7234349542191905 4.457860847843777 25.823079216130544
0.6880682828058888 4.503890235059324 25.844545209953285
0.644184058008161 4.554515431357577 25.87531535146801
0.5959653854618532 4.608708638933073 25.908058791461585
0.5640651022558418 4.640547289563815 25.932562447299123
0.5260630342507402 4.676605287549694 25.956817873632875
0.48864076148151314 4.7126961810126415 25.979938119587107
0.4508243111557424 4.747225106859692 26.002879442980085
0.4119948572585437 4.778460697448721 26.029283795980195
0.34491794101840867 4.828690378325182 26.073624170332526
0.28187836330133687 4.877626603641738 26.10800382038977
0.21730076826112565 4.9260183326834595 26.140180299231105
0.17850422647879638 4.95381969934738 26.156774932883657
0.12950840399252117 4.988084719881493 26.178412570138658
0.0440126494274522 5.037517177693586 26.22073800113975
-0.04054282738034365 5.083804832891208 26.259334831143764
-0.09356867570488658 5.105436344816577 26.29085069578155
-0.16559803453561583 5.136216240932831 26.32525714121275
-0.2232745360582986 5.153993012523066 26.35989204308017
-0.3307003579521517 5.179867307436992 26.426845601371777
-0.3862809062944339 5.198067596412778 26.452284541863428
-0.4300221357327292 5.212601172341931 26.472057710096365
-0.5392833724193649 5.249118565153169 26.508377333587195
-0.649445300937364 5.2933197978381825 26.52842537980121
-0.7425234923333401 5.324555758751003 26.548716461735648
-0.8075745657468505 5.343355269413766 26.565861019715214
-0.8926232505873055 5.367160754156498 26.58665208354643
-0.9577709089870656 5.387845211869942 26.59708237829716
-1.0100033815920413 5.406168506291931 26.60268700775046
-1.0848187303719605 5.424985558577348 26.619974247101233
-1.1456793834481518 5.441996907944151 26.631998835738063
-1.2363020214223628 5.457268519599245 26.66364752262879
-1.3106186485235063 5.47759123349308 26.683891159652404
-1.382349697491732 5.4876851165378655 26.71478577516443
-1.4749467815199928 5.503730291775555 26.74999562095423
-1.5498345508840896 5.5225175083835 26.77231247966376
-1.6210454773560028 5.525953497125022 26.798379547829054
-1.687014598802166 5.531811577880718 26.816410235140673
-1.7290238691085986 5.515606771854714 26.83865193829003
-1.8133751128797617 5.505718816321111 26.853722962848202
-1.8787272630098513 5.49166931303495 26.858454377631823
-1.9335574830821058 5.48461107120226 26.853158950951354
-2.0170744778812737 5.472990439119653 26.837104065714236
-2.132482155990712 5.446621891005768 26.810025726193047
-2.202224323222548 5.425651823031161 26.791462005928757
-2.261788644924176 5.38540123875075 26.781704169133747
-2.3293204147082336 5.350618964319312 26.764888033787578
-2.380168662958211 5.31411127895051 26.753733062878556
-2.441997453186356 5.276502078071474 26.736923380789182
-2.502098798452646 5.24090443592677 26.717293420527714
-2.5645930373395465 5.178599443240782 26.702836214522478
-2.6048761738376878 5.107737401350765 26.699422727363213
-2.651957288097473 5.042535717295617 26.68922608512866
-2.7083574785773945 4.981719695845396 26.672425666557103
-2.7445296692944905 4.934906951727812 26.662815970196714
-2.7816225550097156 4.888325069215182 26.65141918816462
-2.818289129854304 4.846105745816769 26.639305487126318
-2.8758508793016735 4.7880233021381295 26.617739364199533
-2.9199954605717253 4.756681284937991 26.59863410347597
-2.983372328967619 4.711250371892857 26.570252522861214
-3.0284995436136453 4.66828779299516 26.55153621552535
-3.0748468885620004 4.619221593631985 26.533319890212326
-3.1175731999028122 4.573827999573928 26.51623848186656
-3.166116761480724 4.522869834003644 26.496277982753703
-3.20845688628212 4.4768212556402505 26.47894653040835
-3.251594337732023 4.4218937539619345 26.462362791882928
-3.286811975533906 4.375064514558729 26.449161062830754
-3.3207866057511066 4.323280491875667 26.437116179472124
-3.348140439831955 4.281871338592656 26.42773964416115
-3.3742743214029605 4.239464882507325 26.41816244056388
-3.408704019985992 4.18029065869607 26.4065041482891
-3.4499421790775746 4.108577491370821 26.391306035807066
-3.476474545116583 4.060500833055133 26.383032054952846
-3.501551039887078 4.014713345965267 26.375008447568558
-3.5264480523856236 3.969236237077303 26.366847324402183
-3.5513548897808325 3.9232610571587196 26.358398464810893
-3.5757347471594163 3.8764583154160777 26.350203475990043
-3.5999550118089103 3.8295136402954233 26.341979768081437
-3.6241348400712794 3.7826524016754037 26.3335746036851
-3.648918384196985 3.736831311386033 26.32508667903938
-3.6734711889283074 3.690850381004597 26.31653974011189
-3.6974031870582507 3.6441354502703254 26.308097771415344
-3.728997924636119 3.581689623484767 26.29710179642433
-3.775819396185866 3.4969868083452944 26.279612002616496
-3.805865093508569 3.4524554706255364 26.26689894741085
-3.837719818821936 3.4071553218864628 26.253530419574094
-3.9009753237376423 3.3205924261331488 26.226486741192883
-3.9545661050989236 3.2646394635185523 26.201491239940868
-3.9972549416815144 3.194838395498377 26.184768028162136
-4.053337020622401 3.100111660010133 26.160929432009016
-4.0790047209984 3.047105841592429 26.151411183699494
-4.110261413875394 2.980039824710193 26.14058567877058
-4.141360850764304 2.9152322067603205 26.12960613698034
-4.172013815552903 2.851389495888367 26.11858296793348
-4.201825515837111 2.7880331245853895 26.107859533489396
-4.232027762907961 2.726868851027774 26.09710484511805
-4.261792743161788 2.667608819247474 26.085772091943053
-4.293344230258441 2.6126171934748514 26.073066250990614
-4.3391580259990015 2.5372148642996937 26.05531306311533
-4.39597780532719 2.452134987780722 26.03108535405483
-4.433342525263207 2.3967922824544354 26.014842726311997
-4.469639491465021 2.3409986616466254 25.99831957076468
-4.505310715386182 2.281423715998259 25.98170542360678
-4.5372884278383 2.225249928736589 25.966018646114808
-4.580440142428378 2.147118420510222 25.94435986755438
-4.617936015934129 2.0806194931647406 25.924932607143706
-4.654825328005586 2.0143218222989576 25.902438910601777
-4.6884077716627015 1.9506389660889623 25.880989201328667
-4.713638390716008 1.897312299526221 25.865355377888605
-4.75695666669303 1.794849955526315 25.836652264851796
-4.789999155263473 1.7096392989785114 25.817721421292063
-4.814731478701024 1.6475914236026865 25.800656558854076
-4.838404754416876 1.5885641589435098 25.78259886057654
-4.862189670783316 1.5283909057190312 25.763084529769248
-4.88571053588365 1.4671524347719656 25.742404705781443
-4.908222336071336 1.4089487894792043 25.72139835328759
-4.929926070039006 1.346909024714937 25.70149647627952
-4.950114815123996 1.2873419300613937 25.680184925896686
-4.969997014557242 1.226907404852951 25.65822666266328
-4.989750235144202 1.1627059462789244 25.635290068321776
-5.010705997286072 1.1003490332135044 25.60659955520367
-5.0242366824737115 1.042063485287514 25.590498446366162
-5.048002947960981 0.9517768771220352 25.556724391477516
-5.061897868897457 0.8816923613321057 25.54045948654081
-5.07920906128394 0.7954267441567362 25.51594436268373
-5.089843023348129 0.7207537858563073 25.50848917238902
-5.098063202493883 0.6529591521386733 25.510513955504244
-5.10415442021497 0.5909084077611766 25.519394797575156
-5.111976427781405 0.5179600895848759 25.530235495277747
-5.120786462308807 0.43984246627926993 25.541211599004466
-5.126616105256815 0.3904520272897951 25.548851433890505
-5.132007920933756 0.34089048465419225 25.560219937678465
-5.138148254226749 0.2917821636481541 25.57174740177481
-5.144440009381256 0.23976884204990956 25.58787739659835
-5.152973050208697 0.17448460659498277 25.609730123856643
-5.1643945104483855 0.09392370786444904 25.635999896337584
-5.176099001388144 0.02114070899775644 25.65253405727257
-5.187425107124506 -0.04394371277732123 25.663144292420775
-5.198366725161598 -0.10928443956193679 25.674301743178486
-5.211446200692601 -0.17491270109931634 25.68919595637276
-5.223866645752217 -0.23953644355216763 25.70328956608993
-5.240672801126491 -0.32025284850109115 25.720768068535016
-5.256137618080958 -0.3981916621546029 25.72865130058304
-5.2704743670826915 -0.4733537760574036 25.736013650587857
-5.286487910656506 -0.5582333895533504 25.74427089366249
-5.299632907234052 -0.6343334984664803 25.748124838751515
-5.316874920892213 -0.7356570193335412 25.762341940588687
-5.327795427353326 -0.7923092989827687 25.7762742638536
-5.337035384690138 -0.8403796210259893 25.790595447837358
-5.352889114015843 -0.9274391107852447 25.813530256954053
-5.364498350582474 -0.9985935583043761 25.82679853887887
-5.37328028889614 -1.0601414956009867 25.834789185185187
-5.384477377662359 -1.130528436712897 25.849979879002106
-5.395431509205254 -1.201049944177278 25.864383908248357
-5.403992320312211 -1.2616971064824631 25.876194062343064
-5.413332362220707 -1.3395892849381887 25.885877867172507
-5.424166164599587 -1.4402758322151272 25.895661007203792
-5.431106384336154 -1.5419487282741287 25.898786923358838
-5.434761450879094 -1.5984373881866714 25.90034548785286
-5.437087356703847 -1.6725691089792205 25.89791790541579
-5.43820177623012 -1.7371952869463403 25.89485320524958
-5.438930283791809 -1.8016631301508768 25.89213001910866
-5.438212824806504 -1.8700969148807518 25.887586994654335
-5.43627188666302 -1.928334620416464 25.881626750756116
-5.432469179098575 -1.9998784281182393 25.872275885338308
-5.426184311407312 -2.0525620949294336 25.85914948922362
-5.416582285484546 -2.1168695628098053 25.84098837234773
-5.406139412411669 -2.172269691801454 25.82179818577365
-5.395715273748754 -2.226069635864459 25.80320960134138
-5.386828448739873 -2.3119807093941263 25.79428925945646
-5.385346060627599 -2.4068421650397793 25.797406455761656
-5.387193047769653 -2.465464856697615 25.80540907503254
-5.388396561623852 -2.517813768955807 25.810496276066278
-5.387551449643519 -2.579722344998418 25.81236977320227
-5.385161299767983 -2.636136331562734 25.81186015635784
-5.378914506600426 -2.7134838527355702 25.80559984414506
-5.37347787567192 -2.7707617629677292 25.799718845135235
-5.367958774009015 -2.8267053725431417 25.794602607860917
-5.3611411540362806 -2.93124888555944 25.792091398488818
-5.359620460147141 -3.013229814094717 25.80010187543175
-5.35660769828241 -3.087711293822065 25.80635530049537
-5.347447419739208 -3.180459291426868 25.808216265058668
-5.339719499070494 -3.274735329419643 25.81353749995749
-5.335761967834195 -3.3428031540222305 25.821667202121457
-5.333451433510039 -3.3962732246273672 25.827807419938736
-5.3296279782284195 -3.472471987391935 25.83690453480128
-5.323049733872637 -3.5495387361820625 25.843070437296404
-5.320128290082181 -3.6014182981976863 25.850296915432768
-5.317562505919593 -3.6532250194959284 25.857311311451575
-5.312013080310951 -3.7037582096165376 25.861262781532467
-5.300385403738247 -3.78736233508993 25.864021431854336
-5.291565014469974 -3.8504135012090654 25.866050402582033
-5.282478909440073 -3.9236682432312318 25.869945224609992
-5.272254358167972 -3.9989436443251964 25.87276363544573
-5.259658910110952 -4.069686460182318 25.871959091043795
-5.247754399277898 -4.133294353283988 25.870253585807454
-5.239984449848585 -4.193255061691259 25.87291817785454
-5.233086838945626 -4.271831480511382 25.8758160513828
-5.225282773212795 -4.339401682901552 25.877129977341607
-5.217760142599198 -4.404876461122669 25.87651645995324
-5.2173723249405 -4.477760336016037 25.88322380398671
-5.2186905814796525 -4.529484475655015 25.88842296936458
-5.211699924489665 -4.5976806724267885 25.884074969870934
-5.1968609720316525 -4.692761382541084 25.868779855406995
-5.189342167579074 -4.768106124010794 25.856984180684623
-5.188074836203166 -4.818315189171406 25.849197118794713
-5.185598355704991 -4.913841933738056 25.826224310615768
-5.174300594086622 -4.995419966682811 25.78086203656632
-5.164853840757008 -5.056809597862392 25.725399552237537
-5.1640177351807655 -5.114857925411501 25.655494402916055
-5.168168740973446 -5.1529504745269366 25.59980624587382
-5.170448197850725 -5.180951178397109 25.538971332948478
-5.174020525906171 -5.2036846756099235 25.479592368575315
-5.19885806360714 -5.253535403009138 25.376957496883293
-5.21802646364155 -5.287459178408209 25.278897803573123
-5.21755226721578 -5.292974810547808 25.174496501819007
-5.202233505740818 -5.273878190178953 25.054530953721027
-5.187196849610967 -5.256294142738426 24.960690315744916
-5.18031491661063 -5.241975923787782 24.87235248360206
-5.1708928636698115 -5.231939358971917 24.798488988570533
-5.162718296442485 -5.214832767519256 24.724351774097816
-5.142619911887429 -5.198333716300303 24.64714975653608
-5.134186281590711 -5.192332373301402 24.595796635895077
-5.136811192590821 -5.207310481186488 24.52207355430996
-5.112377337950935 -5.202873708116693 24.433449816705224
-5.085513679764317 -5.217459678623216 24.344690537764976
-5.022424788720926 -5.223989050649131 24.257321854505648
-4.957571575867936 -5.210501331517815 24.207262288079633
-4.88528851293688 -5.191573346676222 24.166936678556006
-4.840896532281075 -5.1738925986484245 24.15060127946217
-4.781993860243707 -5.142197900340705 24.13655805517482
-4.717143444621151 -5.124145750531969 24.117783752132475
-4.633177822374426 -5.077687543025638 24.110235448932908
-4.5221666775735905 -5.053635296419104 24.08905285583259
-4.433854598782659 -5.0268215952725885 24.08059774728523
-4.3477519731498635 -5.010059003678325 24.069590103679584
-4.282711435856303 -5.0012063315811695 24.059108703105753
-4.210775102524387 -4.992592315755872 24.048683844184026
-4.142378874111527 -4.984931601075489 24.037650028338412
-4.074335636161107 -4.976328009845516 24.025481634622267
-4.006585760290161 -4.970758522239787 24.01310468736336
-3.9032381386431436 -4.955985788794942 23.99589590118572
-3.8200888880402517 -4.940605343983777 23.982310351084134
-3.7379794758467164 -4.923460293099273 23.973030573269053
-3.636739892960746 -4.900488074851545 23.96758019728486
-3.5651298267587763 -4.890465229489875 23.960261385429064
-3.505948737357451 -4.8777339395993 23.954693146101032
-3.444885300959409 -4.866172218296683 23.95156263361853
-3.3856082472322178 -4.855514664722527 23.9498040463335
-3.3264467273767377 -4.845822403127695 23.948991005992468
-3.2668087922764246 -4.837366260367031 23.948501195945855
-3.2060521637809702 -4.830389559582309 23.94758810403497
-3.1414090116643103 -4.8227909443154875 23.949620951832216
-3.0787161254399718 -4.820861058341356 23.94178638546813
-3.013707698784722 -4.817873936505851 23.934686719531193
-2.947412096219169 -4.8127354475567525 23.928025738880898
-2.8824290576293152 -4.807249462160239 23.922836964087203
-2.815727226978787 -4.800223932858497 23.919586471479708
-2.7545998360369377 -4.792363767488057 23.917142790436106
-2.6967612911445493 -4.784797448530004 23.91447417041919
-2.6403379586764006 -4.777712546703302 23.91094135284477
-2.5818940936984798 -4.7707926707873725 23.906194020740706
-2.5179995587250175 -4.763617758838103 23.899975127789936
-2.4482264669903517 -4.755880945282795 23.892607480772117
-2.371810482496629 -4.747187068493742 23.884877863379423
-2.2908808130908773 -4.737542774462372 23.878026955343756
-2.208225092870578 -4.727524227911642 23.872380616507176
-2.1207811336043068 -4.716951616915753 23.867339379109932
-2.038773081600246 -4.706816098375592 23.862815794679246
-1.9652906762564055 -4.6979409645720684 23.858540421815405
-1.8911850759265039 -4.689553769580249 23.854683123164648
-1.8409434647786527 -4.685553226409332 23.849160057528177
-1.7684001144783719 -4.679371045708219 23.841653265809306
-1.694280965945223 -4.671994482775821 23.834519262562694
-1.6045276822618768 -4.666273661197342 23.82203295698904
-1.5085441479140136 -4.663233176247879 23.80637069372152
-1.4438436043477343 -4.6611810347289975 23.794524343891045
-1.3664562925339094 -4.655454329420762 23.78323417487247
-1.3011941490563546 -4.647397594648915 23.776957639978036
-1.2294465341020189 -4.634108071793436 23.770988761074275
-1.1643200843380175 -4.628697690952367 23.759931927117666
-1.1054555370856858 -4.624292953819191 23.748486457134536
-1.0352249692856939 -4.622838958421134 23.732774927022536
-0.9308995618881366 -4.617886798980574 23.7066441293441
-0.8429862261934082 -4.600736053070975 23.694023598937804
-0.7699315019502881 -4.584581091655845 23.68281637355224
-0.7084646544883233 -4.571909529490873 23.671527563469304
-0.6199835623890078 -4.560351401490278 23.647736219795895
-0.5877381735630309 -4.553432911031776 23.63948805157874
-0.5217229376632013 -4.538777743223749 23.62105197910739
-0.4301577413617559 -4.5305777813749835 23.58709281299629
-0.34630320303201145 -4.521333272259734 23.55271619313713
-0.2687291993883294 -4.509126689792993 23.523343749657673
-0.19909413659592268 -4.497598534761149 23.49668995444995
-0.1393630918837223 -4.487250268075986 23.47013200539125
-0.07868007439942604 -4.473795956758464 23.445324977303645
-0.03171764516868292 -4.462203590571044 23.428231354373377
0.0674415118072571 -4.434490181988523 23.39153239075644
0.14050836689366397 -4.419729995293863 23.358840621691154
0.2152750714745708 -4.405465283503845 23.324710229664095
0.29040973661988945 -4.3865702479957305 23.292901937550166
0.3471915446856011 -4.37079641107007 23.270014743855143
0.4264279167188114 -4.334173752074166 23.24989645547546
0.5206746764319763 -4.2952855236607705 23.223467901970665
0.5973773456037028 -4.263828919730951 23.202588013874703
0.6603983782385514 -4.236005995938905 23.187104824755032
0.725655972213334 -4.209554671617109 23.17037519714979
0.7898881341441852 -4.185046775063981 23.153073477251546
0.8579160815120823 -4.163604253303159 23.132951272050025
0.9232213310326844 -4.138416945871513 23.111610902982775
0.985200633230507 -4.102801275173183 23.099859330099154
1.0315400973465516 -4.072647944870174 23.092992392314944
1.0859459570160286 -4.038207175319547 23.08291928905769
1.1524654770565235 -4.002896526123897 23.06488419949792
1.2331609616644934 -3.961733015099009 23.04228803254417
1.3158999469766406 -3.9200690694820426 23.021883390611045
1.3915318762177358 -3.8840171963665093 23.008556444572736
1.4711102637907034 -3.8441942762891492 23.00259522567383
1.5487331437784737 -3.8042019836585457 23.01127210499826
1.622903735017603 -3.7685804902145055 23.032126999573155
1.6992767765166352 -3.7381600902167147 23.0536636284251
1.781691316592556 -3.7123984736584275 23.079809807676067
1.8451215454933068 -3.7265033297983394 23.070358276163113
1.911562590056441 -3.7500893003814837 23.054610514270834
1.9786215467473993 -3.7954368980608892 23.02004344260419
2.0537889459449126 -3.8314693561131783 22.99391805886342
2.1269949488900446 -3.8705724193010704 22.971538210875458
2.202153066355235 -3.9035767214336228 22.959936183329337
2.2893771559134297 -3.931846803645888 22.962550378940875
2.3413036338488884 -3.9494116437665365 22.961262272344094
2.390476596831155 -3.961020237850737 22.969109132947096
2.4705018968500774 -3.9739907160346197 22.98849097139127
2.544546736330704 -3.9873379965993077 23.007384421093384
2.5951195381535817 -3.99333759819412 23.025396581458352
2.6499685421731987 -3.9904742602015757 23.056850448719494
2.696333055041035 -3.989213281628648 23.08323943572118
2.748340762787784 -3.994116689603741 23.108853705313123
2.7987593705201324 -3.9956573827011748 23.14136825092191
2.86553722100949 -3.9983007888670716 23.189721736228602
2.918412377446026 -3.9997351425463905 23.238276439355015
2.988140186349996 -4.010903301572835 23.30596475527513
3.0318377754491332 -4.029660112407779 23.342533402617367
3.093313375098639 -4.055892571929846 23.408688756429797
3.1484250325577854 -4.073101232150228 23.490276401201523
3.204007389783605 -4.0858514861809505 23.592270856465884
3.2636954375584937 -4.107063288213012 23.697170965574223
3.29132125053116 -4.109350951518228 23.756980526350848
3.3201661060835317 -4.109599060209148 23.82296147390153
3.3374913797129695 -4.109128884958336 23.874274400805163
3.350485227025578 -4.100323406613429 23.9360424192191
3.3634240907893562 -4.095543213148606 24.00023405488444
3.3750681908730944 -4.084265777738937 24.083566552444587
3.385004209869019 -4.072693086378756 24.16587538503808
3.399424789987933 -4.073687449141945 24.236661805483674
3.41338181039808 -4.0623907889970186 24.338916217295964
3.448971805659378 -4.090807164041493 24.424680012077083
3.477631859639529 -4.109318449095911 24.488827922493677
3.5084658303873875 -4.104873559122386 24.569642453771724
3.5284170969815025 -4.04270402136996 24.639988801508277
3.5324565541025477 -3.9512991096660617 24.66678782350963
3.5235213845367137 -3.8634227760545223 24.66208309050725
3.5182737761133347 -3.7436897681046086 24.654211253581995
3.514472808614796 -3.665297375510819 24.642685379390024
3.5132609902324923 -3.5875607803769682 24.63664650813005
3.5118394635902295 -3.5307817793017295 24.630035860983426
3.510511214747291 -3.4571878050159754 24.623991248342264
3.5094149838288033 -3.3915129240731905 24.620312657559055
3.5076518120243856 -3.3241047644687725 24.616423507704006
3.505376286587871 -3.2550998209688693 24.613073245551675
3.5024397899115836 -3.1846538368465076 24.61110915328909
3.497993972333767 -3.103056297489268 24.611770990379718
3.4940292532865227 -3.041498094635724 24.61431380568314
3.489999895612666 -2.9915647752752337 24.614781373116518
3.4857454138072628 -2.940916537405715 24.615062590484587
3.4813266878033424 -2.889063209611506 24.61490088816853
3.4762609790783485 -2.8361040788543823 24.613138918111606
3.4707950551660964 -2.7823403360762495 24.61087745587094
3.465085810095521 -2.728132378329064 24.608708433711598
3.4590917198551696 -2.672860690788487 24.60430761102451
3.452885214293908 -2.6172284662936156 24.599428062445895
3.445629689006953 -2.5486424479572807 24.591758198900227
3.435364971602934 -2.4504154461253527 24.57983149312145
3.423534277039976 -2.3444903109598334 24.569183874850545
3.4148007703543066 -2.2627145412216416 24.56374020897252
3.4033377157775386 -2.1578857576208077 24.556348438321233
3.3963847368611297 -2.091387213802277 24.551669771005976
3.3896995916186143 -2.027984241237826 24.546845587432777
3.3825522930226195 -1.9640120308380293 24.54045395372963
3.375629835066253 -1.8985630672941376 24.533504597748145
3.3685555553645257 -1.8325674631240787 24.526537452921993
3.3601614737613423 -1.7616830488000246 24.51951613890345
3.3530189884441555 -1.6983732294058251 24.508472412318014
3.3465168762537263 -1.6439003462721438 24.50042620774988
3.3364507389381695 -1.5627143679720135 24.493383582587633
3.3274660576140302 -1.494857209760493 24.487192348500297
3.3185941841242474 -1.425646357585403 24.479552088129452
3.3089366339941932 -1.3564249697443485 24.47174372140013
3.2990713773966855 -1.2870096696857942 24.464465411567193
3.2886728808293206 -1.2171661186509404 24.456320179858324
3.2777446738566414 -1.146596465874342 24.445407029530514
3.2660977906528914 -1.0756527505838145 24.4333679159078
3.253411790437825 -1.0016714655868793 24.421801728067866
3.2414600173186283 -0.9349954145351766 24.416651390662757
3.2284919329462327 -0.8654762351796146 24.412615964735863
3.2151345388038313 -0.7972921994315696 24.41037777493473
3.1956219028160313 -0.7036090882564157 24.403897033310333
3.174366531074986 -0.6073575187149656 24.392862637563752
3.162173807002331 -0.5558464801610925 24.384068181503235
3.143145192484022 -0.4821371873374929 24.369897828425287
3.129603796345398 -0.4304329247347356 24.36116796033943
