374
9.544859490097881 -3.157394235447814 13.288935906385154
9.450096673961479 -3.1947515472243726 13.272306887976468
9.388981874093131 -3.2082757102517308 13.247732628231981
9.323080361839324 -3.2308315673583152 13.226710873339547
9.278058005884967 -3.2391054815545486 13.205082481434436
9.215083522794481 -3.24964309898611 13.17096238160009
9.153185879876029 -3.2623568015663658 13.138009229905462
9.082388049369994 -3.2841661016185357 13.103770640957256
8.9973363135216 -3.307101525675244 13.05704145232909
8.910279932666688 -3.337434017258021 13.011266135931306
8.864542359565347 -3.349800191106273 12.982690936225376
8.799120658990736 -3.366886055432526 12.939796408494717
8.749149089095951 -3.3796380722441732 12.905493300429336
8.692172097040427 -3.394576064360421 12.865806272868157
8.640765521771698 -3.407500425860423 12.828526430098888
8.597996863753787 -3.421395093743029 12.799874312537794
8.539082277639224 -3.435330688362013 12.754430355194343
8.500443105698604 -3.4407129879227227 12.721033805288828
8.451264437237874 -3.4480650058346134 12.67810716904867
8.397807294879756 -3.459767800858076 12.632473576190305
8.332609409642659 -3.481375578360871 12.586208898152515
8.251271339131991 -3.4958762889442987 12.51469830666221
8.175488610823344 -3.5215181775748787 12.459207471394313
8.12371681014775 -3.538152419837311 12.42016398630423
8.07263058165848 -3.554601888384026 12.380729748527896
8.017295238383818 -3.5708814192576632 12.339597170989128
7.972797017627195 -3.5805778744705883 12.302094551130233
7.924184160622743 -3.5897442330465603 12.260590885215448
7.876072347843492 -3.6056550708811486 12.22637836602327
7.827473964682274 -3.6239434318162465 12.193988562388915
7.780490251636443 -3.641438160374972 12.164615067306881
7.7381357471464876 -3.6568022591396208 12.138181470479983
7.696532488856945 -3.671705807449727 12.112385709350358
7.635682154377448 -3.694024351154739 12.07436518596276
7.5757758288786645 -3.7164098664057574 12.037267670263587
7.514844099742709 -3.742083647604953 12.001922764138582
7.459706669264421 -3.7602370529025215 11.964791825047845
7.4108569783459775 -3.7745083075017147 11.929074627501448
7.355926352981375 -3.801503003683756 11.90495696141832
7.2923969419297086 -3.836121182108979 11.868635442384315
7.237371581620827 -3.862749977236313 11.838335353314617
7.184234233342399 -3.8878229414519705 11.807336332983388
7.131505683607217 -3.912804860113588 11.776630108633006
7.080008861500141 -3.938834784775092 11.746550943888499
7.013051466038086 -3.972865007029312 11.707156264128335
6.926905210795694 -4.021711732560183 11.658596272219041
6.855580295703914 -4.076687057186595 11.628621261039223
6.805857238346357 -4.114275355580305 11.605974565089971
6.767177686144989 -4.139009923439173 11.583661582168288
6.7207101843859585 -4.168295620347478 11.55606996787945
6.678124850862155 -4.198259043676749 11.531567525526553
6.63690569336569 -4.217581404955019 11.500212398548632
6.595550369617751 -4.245263632352889 11.4731944703892
6.545904274681798 -4.279034227681968 11.440734146542516
6.502972732766291 -4.304372662019121 11.40865421342969
6.462785650359874 -4.328993708093818 11.377689386916556
6.398438387134864 -4.370304050704371 11.328284304424239
6.349705771421658 -4.3980556161582625 11.28651805907227
6.303519886815994 -4.424502654487779 11.245276237027516
6.267280059108779 -4.448743960309738 11.21527270103286
6.226041620423833 -4.477568648612599 11.179925576989406
6.17555918732752 -4.502295624648851 11.128771758342479
6.130601626271432 -4.524283351060416 11.081604790105812
6.085080078960332 -4.548151199461619 11.034372366124684
6.041080584478487 -4.572060165706338 10.98816707557897
6.005979222450073 -4.591229987499543 10.950920307868506
5.966792722402037 -4.616376804979046 10.910492727471789
5.928239855741171 -4.643030918025849 10.871431936494252
5.852048297092844 -4.694435749153329 10.789743723746971
5.797253335311403 -4.7292342094475055 10.726181165696799
5.757516511523359 -4.748551350253213 10.673785061791362
5.7236281786478145 -4.76659057252883 10.629062799731605
5.689635881262908 -4.78824259304169 10.587697816138023
5.632501153888554 -4.822565915766123 10.507122276855915
5.594269999670849 -4.8575224399329 10.460971549080154
5.564994813414106 -4.878494165234951 10.418828903876713
5.521410058252679 -4.907283192091972 10.352232906732977
5.491032619875914 -4.931760466681445 10.306370070180995
5.462973306628703 -4.9577508601482165 10.264114901210414
5.4251592487541656 -4.985492340461987 10.198583508520079
5.390936274299832 -5.018463187302791 10.13933180763122
5.361119427641947 -5.052119959509805 10.087805084863847
5.329269885686538 -5.092764141087623 10.034710575691554
5.305796672816242 -5.121903934411423 9.99139623476085
5.274868529277939 -5.164678428358178 9.93958225232814
5.242965123370401 -5.204333060118262 9.87052834341638
5.218998754156357 -5.231873701123028 9.814217813017587
5.196297803752273 -5.258181764657627 9.75607631906705
5.1713410175094525 -5.287934850739657 9.68545743482174
5.148391718393278 -5.314559965713172 9.609067800867207
5.124672740607189 -5.348991012111633 9.522713630441094
5.112931085180654 -5.366332561681845 9.469665299410122
5.101868238754055 -5.383741865669713 9.407448664966546
5.091982442229841 -5.401965407090879 9.34533240663998
5.084461452233119 -5.42049233806332 9.28293320311517
5.079422180274945 -5.435572232591773 9.228382300073317
5.075912211594962 -5.452967694595325 9.155877246962522
5.074905884236405 -5.4675613719474745 9.091589611356754
5.074269575407718 -5.488483561105521 9.027881125858011
5.074378813521674 -5.511463541187282 8.96385570126901
5.075485604400902 -5.536730607583784 8.899176732957681
5.079131824133985 -5.566574330481058 8.823003568887438
5.087639688582086 -5.5901791038519155 8.74456781289855
5.095902084817218 -5.607108952137453 8.685023395769974
5.107084093265239 -5.6328936827869365 8.603779219889539
5.118429351817828 -5.648798357737072 8.546021851607302
5.131037439183316 -5.667333954335358 8.480881861260258
5.147343323552735 -5.694479693566257 8.39734082186212
5.157225581773285 -5.711678396965941 8.348714359391973
5.173536608631786 -5.730224910903838 8.281312166439495
5.190523262832527 -5.74683823793282 8.215567638683309
5.2108604384758666 -5.764901551303926 8.146013669347154
5.228403781297021 -5.779888441341254 8.087583021500121
5.2539851186682816 -5.795741653251212 8.011265830612729
5.276540352257052 -5.812041305066949 7.944897978965546
5.297940255043789 -5.83278657764576 7.879772168043923
5.319942472496574 -5.8534449049347375 7.815587431915786
5.343602272063958 -5.872466998402882 7.752808237935627
5.368560026913628 -5.890212054329468 7.691048331929132
5.394001504662682 -5.907049672609133 7.632110939842335
5.419972017092583 -5.925115890383201 7.574090043663562
5.445948867373685 -5.943187388709634 7.518981343782675
5.472838974193068 -5.9606693682817875 7.466030548901598
5.499588306689556 -5.979717944739851 7.416377513573231
5.537945478299431 -6.006800988758944 7.349493265175019
5.585860816521381 -6.040703310010625 7.275190620792316
5.624866173326677 -6.067621865684832 7.220650578120981
5.661171412847838 -6.101670301650079 7.170454413413459
5.697935546303591 -6.136970106872307 7.123959206166573
5.728580997043342 -6.163599589180435 7.089194534345447
5.789451476279038 -6.204993015786539 7.030823138632533
5.841427591766041 -6.238894453972713 6.988003601927128
5.884701318406337 -6.268485241135603 6.955276603286292
5.931611163524985 -6.3000510233157945 6.925310937905907
5.979821993769591 -6.329877282697084 6.897307406232072
6.0516210868012505 -6.370019935578877 6.861661721993263
6.137721173044225 -6.419979852227605 6.825584951997548
6.194177623919047 -6.451600281745395 6.804498884232698
6.254416516734373 -6.481971153928451 6.785403775922211
6.323072975004618 -6.515988533454954 6.765716874947687
6.42778672198851 -6.573675579939411 6.739336730005013
6.491144560770723 -6.603821318749172 6.725703216816331
6.553443282570099 -6.634952496874663 6.714877124058866
6.599885786123617 -6.664936251195484 6.7086364170319115
6.665067771193713 -6.7034999580893215 6.7009980751706255
6.70953537710743 -6.730611137723206 6.697462688286377
6.760792510059701 -6.762521156009925 6.694325012236163
6.848694985761733 -6.8129031569587 6.688598679559393
6.933632550605306 -6.861341541796363 6.686385418718176
6.9856344338688725 -6.892272117769822 6.686123675655553
7.047881530664353 -6.926892027794392 6.686084269907591
7.111415164849892 -6.9588589718571905 6.686656018813165
7.188803831478286 -6.996143436029434 6.687674194745975
7.241794753166354 -7.02158914851135 6.689285786649707
7.30561803642498 -7.051840646567499 6.691809829785482
7.370106652294677 -7.082605217196979 6.694752059742386
7.435209990015948 -7.113425111547184 6.6987710948966654
7.499978341929768 -7.14045936278442 6.703095419722498
7.5654196722297185 -7.164306244253734 6.706692125776621
7.63093659041806 -7.190526651831694 6.712285438005557
7.695336328834402 -7.2164122625382925 6.717879715731671
7.759355210005509 -7.239328366393056 6.723234479693135
7.824768331712762 -7.263424024035868 6.73037807875798
7.8845319340706945 -7.293727980498001 6.739312588016938
7.9561990611592615 -7.32364897055685 6.74941253430938
8.007770977476218 -7.336215147797872 6.75501547688606
8.070538815531515 -7.350527014869672 6.762189976636199
8.134951490210883 -7.3680966988534395 6.77006026094058
8.19715308520083 -7.38804187097129 6.7792897894037925
8.258787349267932 -7.409712162883774 6.789596330435966
8.321126119658603 -7.423550917657329 6.798624929229705
8.38336143172428 -7.435361328632536 6.807679747014729
8.43327346298421 -7.442692464537067 6.8148942143287226
8.508413684465811 -7.44943944407098 6.825428872437163
8.5704317434866 -7.460299197250859 6.836931643558051
8.632396593744291 -7.472839373863548 6.849969197434186
8.724003985028038 -7.4880670144682115 6.870013557682544
8.819254155659747 -7.500260551362065 6.8924063278464995
8.885134422656012 -7.512806566885206 6.910997202775922
8.941510240888077 -7.519359389432709 6.926677401173173
9.025918150617514 -7.526158326337797 6.951374955060404
9.09467918693551 -7.537801601214093 6.975266525634298
9.161449368170858 -7.541914005764011 6.997263067624756
9.229748826613845 -7.543000443502662 7.0201992874171335
9.322477123367692 -7.538990483381508 7.051807657814171
9.39324847794234 -7.532659196572626 7.076174315625096
9.441140539760154 -7.526745575079329 7.092966787860169
9.509420885785701 -7.518371606283201 7.118376507533355
9.564759285670805 -7.513082616195525 7.140173903044792
9.61852722680873 -7.508269148796971 7.162724949254862
9.673445750602447 -7.503020435286413 7.185700616045025
9.729912486473273 -7.49741899799863 7.211649753935868
9.787422442477977 -7.492655431012785 7.2376896080668285
9.844861881266828 -7.487351059653867 7.265591224400168
9.90371614172517 -7.482447273942673 7.294463647770279
9.959493596008146 -7.477588629152376 7.322203113981262
10.029481300312868 -7.461459904990854 7.353800690503997
10.089813465001281 -7.4478772252959695 7.38131976768519
10.142630445580512 -7.435244819386802 7.405914644526746
10.179364267112724 -7.425326391816742 7.422835799563371
10.212097927886207 -7.416489092500364 7.437915464519685
10.281932326889159 -7.398641382071394 7.471381121867134
10.335488404793699 -7.382604127983002 7.4964310910609715
10.397546492608464 -7.36298887572329 7.525502500137282
10.446702770768558 -7.345355104138428 7.547824185171281
10.508252425421363 -7.322290100815304 7.575842215528061
10.57698638663186 -7.295867500432556 7.607525607453896
10.63880879518099 -7.270971899766493 7.636192375417858
10.700736105766117 -7.240445988699398 7.662166931496708
10.762263582949442 -7.2118197290818395 7.68953314602445
10.841546157079426 -7.179513500710036 7.728381622175318
10.915711949419412 -7.1564335723214745 7.7689957125292946
10.981876788048963 -7.144741272362723 7.810874025416016
11.04164179533913 -7.135333405753854 7.850445142171269
11.091737369297563 -7.124880346994179 7.882901371781635
11.17143884449362 -7.103798803510688 7.932980197303065
11.241908894099934 -7.09082370208066 7.981725519740296
11.311200086254432 -7.071175382147826 8.027495191045556
11.36358472716345 -7.051960499992318 8.060119145007645
11.426233164248336 -7.023903033123083 8.097496088420948
11.47359044827408 -7.0112336034305 8.130984189514644
11.517055882252121 -7.005125893750191 8.166962172411052
11.57505087907683 -6.988761563459934 8.211229752955749
11.657702836503562 -6.951345683477945 8.265940401880764
11.759931535875642 -6.892408563282397 8.3302550588488
11.811718715457348 -6.86317556402487 8.365099339465097
11.872999988246503 -6.827293233875163 8.406440600530695
11.914845889536489 -6.795468009011365 8.431156422715139
11.965636789270748 -6.7562290662565845 8.46180069746973
12.015581025750432 -6.718914629683829 8.495092491812187
12.07462440427332 -6.653838555608641 8.518935584293652
12.116047904766743 -6.620435060354095 8.546264229805699
12.154567519403953 -6.590949174730091 8.573359506055342
12.218630944262221 -6.539005809691907 8.617014720903118
12.290051178115409 -6.490771234117491 8.67463656111443
12.341749454263823 -6.448868192407548 8.713168382754008
12.391074980296937 -6.412476236446168 8.753925393649128
12.427241618266253 -6.392363645139896 8.788577139953604
12.47470588185743 -6.36727690362862 8.836419262560977
12.518377297791362 -6.336243498956931 8.87634731445132
12.561247668666622 -6.305157300645045 8.915858008129318
12.60362345132665 -6.276982510820891 8.958300071561647
12.645135326199977 -6.250170454106661 9.001446705162264
12.680913758104252 -6.22493802704076 9.038080244219627
12.744342624333548 -6.184668115901284 9.108218594482056
12.78284445895304 -6.167201152715777 9.157922795875796
12.821651298715777 -6.148195475908492 9.206271157504334
12.87812269586261 -6.1202986309704075 9.280371371531066
12.933717058784076 -6.097016776434464 9.359282138018036
12.974480782322244 -6.077848936173042 9.41814234746373
13.014705450219369 -6.068759435952111 9.487486193677556
13.054262783908845 -6.040945079257653 9.540812284850352
13.11297100407172 -6.004779832909729 9.62914377548714
13.169496195022694 -5.976080371395899 9.723383419071103
13.204804607335708 -5.947568017211389 9.775492942302757
13.242363614712024 -5.914625939650153 9.830755995400052
13.291934873365886 -5.868073744612421 9.903476613219576
13.343213567111626 -5.812124542609026 9.975523837757683
13.38205348640502 -5.759687465330349 10.023641974277874
13.412546183728645 -5.720734787976112 10.065523297182667
13.446751612404556 -5.676559340478332 10.112143467409654
13.489315517301288 -5.61359943925171 10.166114745558088
13.51224607445277 -5.580737565328794 10.199374647419793
13.54484600289733 -5.535034191695115 10.244275494046429
13.575515137149683 -5.4849493826722115 10.284115108827846
13.60535194347039 -5.434218232648365 10.322204196670876
13.642321446640667 -5.372813681672077 10.373846108397137
13.66952813706289 -5.326512132094532 10.412821960224269
13.706812439856154 -5.258857248207289 10.465877461842899
13.7367298005043 -5.204214537743947 10.51121145083763
13.778049046207355 -5.123494903754209 10.573527621589987
13.807081286767657 -5.066729386756985 10.624674732146618
13.827084814256308 -5.020677429486254 10.657425332764268
13.849813738836291 -4.966341718416147 10.695421083993365
13.874678959255881 -4.902449216668987 10.738821787355773
13.893485515665635 -4.843125026709209 10.767468103687383
13.911010806039963 -4.77883989649013 10.793554549397113
13.927104335864655 -4.713433232968449 10.816464839860513
13.940579623759252 -4.649644226474324 10.84107480205565
13.952148773349151 -4.580621840404301 10.86015427198605
13.960213605386032 -4.521688019389471 10.876160522708508
13.966444413884732 -4.469239852852241 10.891347908629816
13.97130237850509 -4.421575137939249 10.906939876660301
13.976409050301307 -4.330159814233747 10.93239481795183
13.977259477143923 -4.249421016310756 10.95418412432121
13.973340729072675 -4.193418517064931 10.959195591744402
13.967422805437467 -4.116858050425248 10.973056384997937
13.95975026731193 -4.051626869000148 10.985733190737134
13.949963834805812 -3.986091646674713 10.999936922979161
13.93771059957732 -3.9173895192678856 11.01546770582368
13.923304213194955 -3.8536091722165677 11.0340800769765
13.907502084361562 -3.7885211649957853 11.056313634557787
13.891198026205112 -3.7297811139431163 11.079242076174884
13.873445286231112 -3.669783382053267 11.107121406005787
13.850560889546292 -3.5988222496325886 11.142789821131322
13.831011147909946 -3.5438348106056248 11.173119051034012
13.80783653136296 -3.4844003618931776 11.202419800008522
13.78697875370534 -3.4309530607967558 11.235661359826574
13.763712248771506 -3.375659529303795 11.271447833334603
13.740304349621857 -3.3214583615579834 11.30514407256115
13.715889328961943 -3.265754324018525 11.350249725230737
13.691438600004973 -3.2126159315909737 11.393440047339249
13.664621904007909 -3.1587716251939275 11.434831949257463
13.637594134146063 -3.1071510041988732 11.474303761851337
13.608294411856482 -3.0535379704549106 11.519398564036072
13.56800153291452 -2.983734589658063 11.578553527862558
13.545736720295931 -2.946649187355656 11.609620877065817
13.514680278133927 -2.8973380648987206 11.652807080473051
13.483887145133068 -2.852442103906597 11.696383920678924
13.452476790653307 -2.808368957502406 11.739934243920645
13.420235547329895 -2.7657593399754354 11.782405938801423
13.387336020661174 -2.725666073737166 11.823794802462983
13.353505864167133 -2.6869553370057124 11.863799781176526
13.319771323550953 -2.651426394852537 11.903336314902914
13.2866966163999 -2.6191248472878437 11.943428369579324
13.25265248660251 -2.5896927145061825 11.98111774886553
13.213077095739179 -2.5579357477149403 12.021949103696075
13.17999842284692 -2.5326002231693323 12.056062663679393
13.13333589550303 -2.4996268539249114 12.110505394628431
13.094507464317866 -2.4748500422398134 12.154781701842131
13.055983274578079 -2.451930230369233 12.198799582590054
13.015016928245538 -2.430523749232692 12.244045852337242
12.958768714175127 -2.4051303836029634 12.302994255352301
12.921663642656405 -2.3915325878856075 12.340467346480475
12.876884866629817 -2.380003988635008 12.391154425761782
12.834746309017206 -2.3726133405970042 12.438159306179314
12.790338758496786 -2.3687420691862355 12.485591237397093
12.744528161335303 -2.367778464572086 12.531219755377867
12.694460118704725 -2.3677877922215487 12.5761340843536
12.638474417309784 -2.3726123961146914 12.626145543238556
12.58725993288379 -2.3804140112057217 12.671114632716316
12.548817450629869 -2.3878567216970703 12.70405277800168
12.485867655792662 -2.4020953593503336 12.754992055210705
12.422010882694359 -2.4175738918756355 12.801884686861756
12.37284852019268 -2.4269427771354426 12.830636574836886
12.322539688401386 -2.4386574637489904 12.859546839272776
12.262248835524566 -2.4576929038061595 12.898846437611349
12.213838628233908 -2.466768628122751 12.919252789993665
12.15080303325262 -2.4774205378130922 12.94145709040197
12.079350235284705 -2.497865212991166 12.975290375165072
12.012203654864908 -2.5118430410374897 12.998328551417734
11.963236870311269 -2.5215133788080353 13.013434352504694
11.894941045055253 -2.539069112225402 13.037957136659783
11.827890450318545 -2.5560277470427355 13.06053132776042
11.727624138361842 -2.5794699033379027 13.089678476400513
11.65965722767354 -2.593237823279728 13.10426370603093
11.582587944132735 -2.6077552018708596 13.12216458706556
11.471565771479073 -2.6207904606737467 13.133336201043383
11.379787819464374 -2.6400013782150085 13.151312419871251
11.31652774656236 -2.659519312262187 13.17010661858694
11.243866922906026 -2.6812624009679027 13.18978889844197
11.176253156022751 -2.6938610415793756 13.199063829657122
11.102620021972557 -2.7051686881117734 13.20544106676771
11.029963637905611 -2.7157912879198296 13.211236786454903
10.966569745661447 -2.725582100357734 13.215969507585248
10.88463711833344 -2.7421710537838484 13.22535549732543
10.81184125099498 -2.760774619234722 13.237115824415666
10.742044276109786 -2.780161037590192 13.248833442436203
10.664587222152822 -2.801770789840445 13.260093685363097
10.599701169776985 -2.8156003394649005 13.264989023351932
10.519197972997034 -2.8328631579993546 13.269998811302218
10.458330771035381 -2.8476493973826864 13.274688339674958
10.398266492478035 -2.864863091862242 13.281076304223573
10.300258689864153 -2.903734595422269 13.299993385005786
10.220968529847468 -2.937004205818617 13.314737490387452
10.136260582744885 -2.985300843999891 13.34033622387316
10.03418335750965 -3.018680464592334 13.345109435120074
9.970027607666927 -3.0386353199915845 13.345690482334552
9.906928332910471 -3.0531852593167326 13.339972537754276
9.842558741909125 -3.0706024250541253 13.334924275958661
9.793444107249558 -3.0836148198090614 13.32996254726192
9.739608099730978 -3.0999043437084026 13.324874353910916
9.665698202893141 -3.1174049731221185 13.310591758002117
9.594930449465904 -3.1375428317985357 13.296049262460647
