456
-17.24344767853198 -7.402782345571401 -4.278049373723926
-17.2920426733992 -7.410176622610235 -4.257405977839949
-17.343617305511607 -7.423096466066472 -4.23584285888109
-17.451337528564235 -7.433100577504614 -4.190957179456282
-17.54030797277264 -7.4595675690681045 -4.154129744050087
-17.605650133708977 -7.4716299988257635 -4.127463770874815
-17.70179499255959 -7.479581069392225 -4.088520062612573
-17.761146871921813 -7.481318498299853 -4.064852434700628
-17.812345634720206 -7.478424818374327 -4.044150414915842
-17.873017600814546 -7.472962954254054 -4.019058178377525
-17.945650691403404 -7.457328893231114 -3.9884402125815757
-18.009594929318137 -7.443360141855754 -3.9614526296207133
-18.072535014109718 -7.428766137609083 -3.9338593408933487
-18.16385383047958 -7.4106728300815305 -3.894146626807277
-18.210034519197922 -7.409608985537725 -3.874231564427186
-18.260609385702015 -7.409533261468633 -3.8525987714684344
-18.35986554552717 -7.3950336343574445 -3.809099318903642
-18.45370360057134 -7.393508266328849 -3.766751377820415
-18.535975717965382 -7.406985983899817 -3.7319177095470293
-18.587660177526917 -7.405815165603743 -3.7083572869334818
-18.656900911544643 -7.385865569983206 -3.6740308704601827
-18.733119117375864 -7.38376996320989 -3.637836420235359
-18.79513973806754 -7.36727777124435 -3.6064408169861495
-18.84815516255062 -7.37144249821594 -3.5809764507454336
-18.932409895604145 -7.3444422900394795 -3.5354243995767978
-18.993401789615366 -7.308241086412371 -3.4972071585116122
-19.049056229059563 -7.2966659464937305 -3.466497370101493
-19.112230223327952 -7.28698189525055 -3.4310131383159264
-19.16330003658358 -7.283693043292811 -3.402548596416018
-19.278687772160723 -7.2840034463364365 -3.33847481967014
-19.345049614494293 -7.284510035290737 -3.300686607625789
-19.41890168469277 -7.269536429461734 -3.2520159736297876
-19.466046931099275 -7.242336745581735 -3.2161719738140326
-19.519306241235988 -7.227618353741493 -3.176453534499012
-19.571229337064484 -7.20884902963966 -3.1360855621168278
-19.619378941655576 -7.166723466618768 -3.0885803207738065
-19.692737561750523 -7.128510922593053 -3.0214696678868633
-19.755390436204102 -7.115311793529859 -2.9680196487220694
-19.81212343570375 -7.113776815873443 -2.920284853744971
-19.855171349586932 -7.113127864557976 -2.8830950823435337
-19.904983397804234 -7.112767373271726 -2.8380292240199716
-19.94709199928255 -7.105343892140324 -2.794707519919466
-19.993617278318336 -7.094867161062155 -2.7420881125494225
-20.028779486324662 -7.095692959486721 -2.705018773065177
-20.072982255357054 -7.095606290244058 -2.655427864658432
-20.114826831868502 -7.09485095417689 -2.6066882045869346
-20.15650133243062 -7.095572516064578 -2.5576226520231575
-20.190921605813447 -7.09885320393624 -2.5172617388414906
-20.23363484140046 -7.1076615414197715 -2.4700445258805703
-20.294307289637633 -7.115324856702351 -2.3967203327266136
-20.348114743268308 -7.115838480938377 -2.323918980522552
-20.385833963854108 -7.115183442986684 -2.2716624288221103
-20.426463674706778 -7.125971490097106 -2.2204520771769016
-20.4651455839956 -7.13652226950893 -2.1709021644747515
-20.50832354763969 -7.139510134704999 -2.1043629983893646
-20.560623229555095 -7.163575407204291 -2.0399649068251327
-20.598480039535275 -7.176706334596921 -1.9865026417205291
-20.644547133623142 -7.199165577688245 -1.9240630246070236
-20.67581720574313 -7.214696702369341 -1.8798316738165577
-20.723880812410297 -7.243231941097736 -1.8130193621763893
-20.76473883525588 -7.267914689831263 -1.7535575565563823
-20.80024815408174 -7.285619770845246 -1.696286010758635
-20.83427363212571 -7.3010477755701135 -1.638048271602931
-20.86680547497721 -7.310806310259672 -1.5755644762974408
-20.894008642563534 -7.319217260046527 -1.52034504840725
-20.926648166720373 -7.3348583725588234 -1.4573313910308423
-20.956271729135654 -7.349971194164739 -1.3977971247585412
-20.983994206756293 -7.362244894285254 -1.3372148965758177
-21.005612458837565 -7.371651864843173 -1.2873696893524942
-21.03677031450746 -7.386483560278355 -1.2142135941649908
-21.06083991162489 -7.397251213954787 -1.1513972452709937
-21.090682522710832 -7.409996780204008 -1.0696707445212144
-21.122880609991626 -7.42236830140968 -0.9700108265955334
-21.140801196537737 -7.432988058354637 -0.916055497197098
-21.158924746991293 -7.447476523896631 -0.8616831632186259
-21.18967796299703 -7.480906022234079 -0.7760789730819153
-21.20419152994257 -7.4936656394986585 -0.7259026456354822
-21.223588569038007 -7.511068005026546 -0.6548008484528537
-21.248037641000764 -7.542158056206018 -0.5706997401791811
-21.26315404230584 -7.566061761228669 -0.5222725968703381
-21.282118522155248 -7.597567619971862 -0.4621852284777602
-21.304104840364296 -7.630477247613497 -0.3569547218190051
-21.3156331121437 -7.647125085505953 -0.29400209884297024
-21.328835998136654 -7.668316537779807 -0.21227637897176288
-21.340367043777242 -7.688298378729542 -0.11725873019287492
-21.344947944043806 -7.687582621735604 0.012133254395172433
-21.34622258311447 -7.688329807453085 0.11038456143719616
-21.34378484211696 -7.682170769966051 0.19966743980600482
-21.3395050646789 -7.671648852836 0.25320662165769964
-21.33054330443754 -7.655220709619497 0.3520783730355533
-21.32444688406358 -7.666490526680883 0.4822647674673873
-21.31461481248754 -7.666099769589076 0.5775822988205244
-21.314268508565252 -7.68559765108057 0.6257105962287537
-21.312651083226026 -7.7274749485938 0.7264393299252618
-21.30066918957089 -7.733339571755986 0.8171850421458167
-21.29391301620362 -7.743479180637998 0.8775202046753694
-21.28722567433048 -7.760694529610975 0.9429267567436257
-21.28003287365476 -7.776249808142911 1.0083823001243177
-21.271918981782942 -7.791928639948464 1.0744417559878878
-21.259494555604984 -7.814495066640896 1.1663384098650464
-21.25030384793355 -7.837119910490371 1.240628083308097
-21.242574460259398 -7.877049837685355 1.3229329781966617
-21.235934961045746 -7.902355183053546 1.3774610021157814
-21.217695674571893 -7.910781603312181 1.4705800034679046
-21.202954633974056 -7.9189390975342615 1.5418096774676757
-21.18717161700507 -7.9260301807809395 1.6145406186727451
-21.173090069517116 -7.927596407726931 1.6732743694250651
-21.155197469966417 -7.930025201227902 1.7516291008533733
-21.13637382717397 -7.959256345930852 1.8444793124253847
-21.123574105460968 -7.976021340778734 1.9093946143464129
-21.114007834649065 -7.998840803399949 1.9642962204864605
-21.098894830797803 -8.029568785929047 2.045729687312326
-21.085726370377674 -8.06066377797134 2.117631673210607
-21.073071390204323 -8.089503158821065 2.183436210485883
-21.060056597529712 -8.11245369893742 2.2477670921937953
-21.0432503556029 -8.138061902822951 2.321565275727812
-21.032240232061152 -8.155870422819016 2.3745869908036545
-21.016158895445727 -8.176358274247187 2.4402240862888855
-21.00034986102613 -8.191852134316205 2.503948929392233
-20.98847431898628 -8.204174129821244 2.552900762863271
-20.977143371378023 -8.217770433997451 2.6003169055057884
-20.964415093370228 -8.23246174876976 2.6481883042498846
-20.950759655251286 -8.25021965042513 2.704643727869623
-20.930376630391912 -8.287949084727602 2.791142635145039
-20.91448316719276 -8.307385247863854 2.8523702396043618
-20.885891138141663 -8.336959092010284 2.9564909894523663
-20.86165444640203 -8.340222070022568 3.028235114483
-20.84514026578459 -8.341288156730117 3.077114198636684
-20.81016824606459 -8.352334401120121 3.1847284353785983
-20.79023570430162 -8.351382727160104 3.2404874409175553
-20.769069384080616 -8.348049850618088 3.297466552003065
-20.738530765941622 -8.35207916035231 3.3840297180305505
-20.71263025034372 -8.347525251394488 3.4517497088220135
-20.676871909608924 -8.342806009435984 3.5451209731848663
-20.654088060969098 -8.355367036978963 3.614175309492097
-20.622034905106574 -8.365944483394898 3.7015085221127006
-20.593061863596926 -8.38514033129298 3.785995798839141
-20.569460001226844 -8.418198662181359 3.8629032002019534
-20.54633058154095 -8.442159214435167 3.9324885598892982
-20.513552951096298 -8.444005616212909 4.013407679046971
-20.487070269899213 -8.456485008413159 4.083221708378788
-20.466018494675943 -8.456322059478188 4.132810941779547
-20.440952065974418 -8.465040813897366 4.195686746235716
-20.419550506016698 -8.468413597862023 4.246437489327855
-20.383523123273964 -8.462757243964118 4.324842085693982
-20.345887810673542 -8.475416990217981 4.414264315021284
-20.312060764173825 -8.475399542066544 4.487151466386706
-20.276369518831398 -8.46683099436484 4.55800181334627
-20.245079981875456 -8.456576476170952 4.617452741897839
-20.215541233853052 -8.449308815178801 4.672558055736335
-20.18489696579043 -8.441407947585526 4.7279962810170915
-20.15983810742898 -8.427410729592646 4.770360610098175
-20.124382195864328 -8.41497044111725 4.830844376178836
-20.0953519158904 -8.40627501559383 4.879956740535207
-20.06642695722233 -8.395785606349794 4.927130472287829
-20.038439337797296 -8.388954062051093 4.972637922354168
-20.011174472077837 -8.384550437050008 5.016956011979619
-19.970812841093593 -8.375640723541807 5.079162745496509
-19.917269538621213 -8.344354496147819 5.151680935573587
-19.88864418650812 -8.33849476572946 5.192599483429262
-19.836752990084896 -8.329355930459501 5.260889113125435
-19.79011156136199 -8.309486174287407 5.316975073155515
-19.745306078081992 -8.285314931813831 5.366041683788444
-19.70073513101799 -8.26065135685829 5.4124484135118855
-19.655577980996586 -8.235095595622878 5.456538535565581
-19.583634730519 -8.205930348737319 5.5228358358171405
-19.521547527589217 -8.195589056681571 5.5757841337792
-19.47581387553007 -8.186437525490112 5.611765241801419
-19.41969129570545 -8.170802985539249 5.652297937214768
-19.35820601819957 -8.149006113149797 5.691794281512906
-19.299813293125332 -8.136227049004127 5.726753018503899
-19.205228630672284 -8.11035907683537 5.777412482613137
-19.153248891820887 -8.09821099847783 5.8037065155829115
-19.073892900974368 -8.078087104672148 5.838204768905059
-18.993696229684673 -8.041857276934385 5.8702246534713245
-18.91347402327406 -8.024512293386382 5.900419623945922
-18.822864309906873 -7.97716441589688 5.931201278845097
-18.76014436883111 -7.95633351454806 5.950900920460546
-18.672524779339017 -7.940004168047928 5.9787487358742615
-18.59323060448145 -7.907121171567232 6.001793769448912
-18.551024399524987 -7.8822847998154675 6.013765458833552
-18.489857737346068 -7.86004081230165 6.029976232040041
-18.42319027666067 -7.843422447601199 6.047891736567682
-18.351539812316055 -7.817373540396401 6.066075116235866
-18.262734691132824 -7.7800804609585015 6.0848884874298195
-18.16333245226118 -7.762011746579089 6.103221171518642
-18.074713971732077 -7.742622928772814 6.117360189513447
-17.968903098281185 -7.723505919166184 6.131591493015123
-17.891835772128758 -7.703715519449249 6.139931160844933
-17.838591273691286 -7.6952426738621345 6.14589002029247
-17.77579300677858 -7.69607769895023 6.149957295188752
-17.71652029611917 -7.696518699809811 6.15417728292676
-17.620571495726765 -7.68076731462596 6.158209767297932
-17.556326082671937 -7.669983704210463 6.161165062728613
-17.4641796769944 -7.65731926201895 6.163292549728065
-17.395151297752374 -7.641974597192398 6.164377210501304
-17.331016200569678 -7.6266683877934245 6.1652768302821475
-17.264360162374654 -7.606865765410774 6.165186004846634
-17.197377222491497 -7.5869627151205545 6.165163815158272
-17.12259146380907 -7.562737053705282 6.164295151883371
-17.060076906307586 -7.534663084720362 6.163942716756942
-16.99654504781968 -7.503472616956008 6.163654400136306
-16.952906618748287 -7.478735766266178 6.16362518669617
-16.907964407792036 -7.451938596885087 6.163660707121439
-16.863059185001934 -7.423824489029316 6.163685058959233
-16.81695124809345 -7.3951578677649135 6.163219047842728
-16.747254485418917 -7.3626053416392025 6.161259507630482
-16.678766471512507 -7.336644500944031 6.1579234022865625
-16.594421719380566 -7.307085413490457 6.152010583994178
-16.544169361958534 -7.2935453061657185 6.147487615362343
-16.505918566690006 -7.282079949191033 6.143742698145564
-16.429710376669494 -7.259235063658922 6.13628159243206
-16.375014492607832 -7.2410685911999995 6.131508510087306
-16.31080159231966 -7.218212284431237 6.1245211661600845
-16.22954144954055 -7.188323716601965 6.116261277216026
-16.140207608810453 -7.1545535168875025 6.10681112687735
-16.044044902999133 -7.121944280325403 6.095757183642503
-15.985631814797914 -7.096551247547166 6.08797793592853
-15.906651773055783 -7.062308688537678 6.0794147122241915
-15.830298727830867 -7.037587774303136 6.067001008057931
-15.769547165849124 -7.019198898544747 6.057075067594248
-15.69402824741836 -6.999918160494566 6.0432052994542635
-15.63129776081063 -6.984676816201661 6.030599858094773
-15.557992577396602 -6.970007171236402 6.014997704171204
-15.496683749721415 -6.966148942409344 5.9998256099957565
-15.432381590624916 -6.956785626130658 5.985273670777394
-15.35120009500593 -6.936955105448881 5.966311652891672
-15.24052578259093 -6.935656267877069 5.932962799931565
-15.173820793540587 -6.929680956287002 5.911806421879753
-15.09474006456696 -6.9167555027392815 5.887731509296136
-15.050491198131615 -6.909523311024459 5.874260684458939
-14.996588021084875 -6.905143119734831 5.854932239361897
-14.933725251989127 -6.944161493986151 5.8227306825342655
-14.864833548438034 -6.98707449398887 5.785781951173404
-14.822531853351569 -7.017699369754158 5.761761641381645
-14.767190249959203 -7.071805806381645 5.730953769995524
-14.685695869103224 -7.115258744386767 5.729817958540645
-14.627098247584662 -7.128976476660725 5.690191812348593
-14.58113384400645 -7.121879953215519 5.639339139412243
-14.509191788555944 -7.115258733425904 5.628714954644426
-14.427723614773239 -7.12702671421128 5.5896569856870455
-14.362225603181896 -7.126128570144301 5.537093712735649
-14.291627120152354 -7.121228049167849 5.50541607014749
-14.222649706750515 -7.116858948087559 5.47374281146275
-14.159359271367688 -7.111650463670073 5.444681116050848
-14.092257822945207 -7.107010245119302 5.413186542530254
-14.005218731174786 -7.104729714277324 5.370621526107074
-13.863459844419298 -7.111619335371415 5.297281311839309
-13.78637339368457 -7.1284289539454075 5.253336728625189
-13.731115995267428 -7.1504154289982385 5.219312183443191
-13.683562736550044 -7.1724644685617704 5.189893879986107
-13.63968560368901 -7.187641966350295 5.162002342223806
-13.576882393049699 -7.193884479655151 5.126844516870624
-13.474832672280298 -7.202865917587066 5.069802128280099
-13.413858067441117 -7.205846033364821 5.035785046372717
-13.339199159867634 -7.206578336165472 4.994601538990697
-13.265363379526553 -7.207303800237176 4.953527821990644
-13.22044324540502 -7.203545297819985 4.9292752961377095
-13.17336585216512 -7.194793527342596 4.905732123009162
-13.106013333665807 -7.179902320493973 4.8713285896740555
-13.04863550048411 -7.159913042915937 4.843446582535663
-12.983952964866873 -7.138615307908936 4.812244190947587
-12.927198826741844 -7.137389825258305 4.780126898893352
-12.87201253610708 -7.130452828858459 4.7503704597996235
-12.821838566664027 -7.116577356414802 4.724789370469901
-12.771698743024224 -7.105402763048133 4.69765531538634
-12.709727932081847 -7.102929081351924 4.663194638366645
-12.622818740492185 -7.090130637567514 4.615768175944987
-12.519090535419913 -7.120704980445998 4.546460090206927
-12.462233592337258 -7.1265183142829125 4.511239606397467
-12.385185957335992 -7.1316140595076405 4.464181160788169
-12.332112397799142 -7.145177875542429 4.429136999529763
-12.269599109774832 -7.150873996794196 4.389880704929473
-12.21572751995121 -7.191252389623211 4.346915940971748
-12.156979616861 -7.2319456624156295 4.301734084119136
-12.105096469089439 -7.257928661531132 4.264906711320411
-12.051146471734567 -7.29180887956894 4.2254704953696836
-12.012847865565378 -7.321939482896314 4.19651480173694
-11.969119086480344 -7.347726118008509 4.165668290607913
-11.927789288200046 -7.374536652730855 4.1361616094026
-11.88869108842591 -7.3978246546016315 4.108502477114093
-11.824654303276619 -7.433995783200812 4.064013230367926
-11.7592740963074 -7.465712391465253 4.01876391208029
-11.694212773154076 -7.484458150405869 3.972096831607636
-11.650796802247593 -7.494700945693873 3.9402902335069707
-11.609451796810307 -7.504200645382788 3.9069217901628392
-11.570617644737652 -7.515690648742609 3.873050443517093
-11.533149314599454 -7.519843972844232 3.836044161468037
-11.464153639505515 -7.5125022272660775 3.7587317792543433
-11.412551143250498 -7.508652456455955 3.686586350460224
-11.363988628571184 -7.5042525460472085 3.601454746853387
-11.328664139112652 -7.4981575216523435 3.527059580354162
-11.308746271755764 -7.512108007007162 3.482309776714851
-11.283548211644495 -7.510637199971978 3.421749603764707
-11.263012834468002 -7.530186185418447 3.360188828675012
-11.24398438644687 -7.565829359701654 3.2969762774237683
-11.22953713923433 -7.592285496061958 3.245726963583698
-11.200716841928033 -7.633225778692125 3.140594302204628
-11.185827461415075 -7.641100514138444 3.0911171613387904
-11.158136885366675 -7.679869265249922 2.979833865891224
-11.144026282257704 -7.721896372246766 2.905176620373687
-11.13460207542644 -7.759250547728492 2.841501754601858
-11.116280741907849 -7.778276454116154 2.763712134425725
-11.10394076496083 -7.792773279950147 2.710086331686045
-11.08810718569907 -7.813405407792253 2.6354670296202394
-11.083953310266304 -7.840336512906566 2.5916997414951872
-11.080875090320392 -7.870907540814523 2.545564463857918
-11.083030743480313 -7.927961318208315 2.474730260963389
-11.075777447306534 -7.9707470927458335 2.3898469156584428
-11.079123528586843 -8.015172523048703 2.331104983433453
-11.081854034662745 -8.045383500454651 2.2885718740711716
-11.083391919070978 -8.072930497426215 2.2455027268330454
-11.085495197255755 -8.099434148947752 2.2021024613465845
-11.087840622009187 -8.136236915020152 2.1346998344329378
-11.085131684520663 -8.156157272849054 2.0690046979413137
-11.081162027195395 -8.17552084498216 2.00137454447933
-11.079347585089332 -8.19584296668861 1.9328631026103842
-11.077147707290713 -8.216946808511919 1.8527073566850076
-11.075386717693096 -8.240505935814406 1.75097419337203
-11.07883999639554 -8.257980063712578 1.6988117726239993
-11.084028139985863 -8.275306652038028 1.6509707488673568
-11.096763067445645 -8.308348607318171 1.569307269971559
-11.113976228587353 -8.340829125702067 1.5055274410131578
-11.130996694634526 -8.369842948591307 1.4440215540268584
-11.138918152374348 -8.38499950649641 1.3601420761344312
-11.14204772134576 -8.389424409680512 1.3071533703325662
-11.147685638314549 -8.395208354484705 1.2465913766582293
-11.159698844577182 -8.40687848219566 1.1936206846902913
-11.160347078198495 -8.402542159711764 1.1148047168898434
-11.168028884508644 -8.401091410271421 1.0373081751923146
-11.1714856870314 -8.395589076465049 0.9803584301036048
-11.17988569141524 -8.390714884395623 0.9035710848413865
-11.197383091145344 -8.397943307302217 0.8377678159064428
-11.211246404694231 -8.403151361284024 0.7859344073784709
-11.230659460203537 -8.406504886964546 0.702647513315827
-11.243670009845683 -8.389364477988858 0.6017770226616608
-11.242609328652991 -8.362405064584078 0.5360922952519895
-11.26032185846067 -8.337547555458544 0.409885187233277
-11.26603017331965 -8.294629848019367 0.2976815561739457
-11.289499226955064 -8.283214031916513 0.20118274464026237
-11.317871894932491 -8.303789548585625 0.14727861216926452
-11.336780580819385 -8.30071490615606 0.08785029886089235
-11.34824345407571 -8.278975475711794 0.015168958087437678
-11.356352215262689 -8.251821983888435 -0.053774306323635834
-11.379951805939442 -8.246400783069728 -0.13260421845237375
-11.400823105058453 -8.245523066840322 -0.1893004689134301
-11.4344999430264 -8.235736774593795 -0.2964797558443344
-11.459644430008776 -8.234123363793657 -0.3671118402901872
-11.480175309218895 -8.234113606162202 -0.4219842524784526
-11.523754176944289 -8.25316650690413 -0.5111967854596464
-11.555639450871707 -8.264846288368418 -0.5794669781332468
-11.601010111410583 -8.258534054429338 -0.7074633378789199
-11.631028136894217 -8.249552158801036 -0.7959143171852703
-11.64942428910333 -8.237579846462861 -0.8563181653769958
-11.674538192834666 -8.219067703224365 -0.9431578327791703
-11.705421150626243 -8.191205240945642 -1.0517613850670917
-11.728110950597689 -8.153999833938295 -1.1474772505677262
-11.73306181484459 -8.116166477986342 -1.1982530721987148
-11.740820325461108 -8.07741911301756 -1.255546194916656
-11.766222656094532 -8.055950171993736 -1.3392658698503688
-11.811925752963267 -8.08353866245375 -1.4174421492867488
-11.836557884791311 -8.090051348116399 -1.4668442832633695
-11.872760106460674 -8.10161792646648 -1.5410668329264385
-11.91107451621238 -8.124903752768882 -1.6105386037904457
-11.950623012516475 -8.143786025456414 -1.6864291275673708
-11.970207562716789 -8.141672321099724 -1.733745670591524
-12.014780545689622 -8.152323405355324 -1.8317831004302703
-12.051551402454601 -8.14171622829714 -1.9215381930613924
-12.078359514348932 -8.129667389813205 -1.9910950178338127
-12.09557984687564 -8.110572370361085 -2.0425681103972058
-12.118988588372742 -8.071664523190604 -2.120870920774367
-12.142709674989591 -8.012544212345077 -2.2044932149517464
-12.163341031417017 -7.9815462648316355 -2.265753831952577
-12.19448901339151 -7.961547223292838 -2.3403636454756604
-12.235637985239144 -7.92859608026866 -2.4410346370505716
-12.273121076298645 -7.900239185562521 -2.5287349622516504
-12.315055854707872 -7.905693913030113 -2.6022725463571623
-12.341043945639266 -7.909925626880234 -2.64592940567906
-12.372842034651255 -7.8920041435005075 -2.711089512618331
-12.401875209802641 -7.871097380976892 -2.772168708805125
-12.421340034183697 -7.850912498926508 -2.8154411003140987
-12.444689599597403 -7.822990431715574 -2.8699992888440238
-12.482640826228717 -7.799486523550923 -2.940810962054016
-12.512922442460516 -7.77780666427271 -2.9985715201244467
-12.543746003965149 -7.763868491388655 -3.0508168828876925
-12.589269672653655 -7.736036174938784 -3.130278595759477
-12.63954953425687 -7.714568610110954 -3.2073895676072213
-12.671033162607406 -7.6954112350078905 -3.258788128245313
-12.722632415422893 -7.703560874292066 -3.3155490125350204
-12.76275210865461 -7.675653666083127 -3.377245710128003
-12.81198993841547 -7.666412026863437 -3.43600820741981
-12.859800365134856 -7.671731230206353 -3.484244371665966
-12.918526983641197 -7.651512497757453 -3.5531233070131014
-12.954409756555966 -7.642280059795352 -3.5926450681957385
-13.012505299037384 -7.631342141418415 -3.652165459608468
-13.082968647915592 -7.6222722550436135 -3.7186834360680217
-13.138138186458656 -7.6190464674343 -3.7668360951017825
-13.182171629974839 -7.615679013201321 -3.803475774774327
-13.226680283337812 -7.597371730934293 -3.848946300690446
-13.263558869011847 -7.580920314974746 -3.885642251107244
-13.312088540128059 -7.559271281341042 -3.9339315212707286
-13.37826214647885 -7.512859413910624 -4.0069191731107265
-13.399114702434833 -7.442462710474421 -4.056046451379303
-13.458518093190438 -7.414227806466176 -4.107777143078558
-13.525658306679796 -7.379029348567679 -4.163506591097241
-13.59765335507531 -7.371173952933606 -4.207738660680492
-13.663776585830082 -7.373856577784217 -4.2437301581801545
-13.758903952560896 -7.365512411035869 -4.297499121048018
-13.849607878631975 -7.368678015724788 -4.343022691028306
-13.915221711256677 -7.407344906839407 -4.365435025731311
-13.992164853686877 -7.445779063385464 -4.392993136334806
-14.05209591055449 -7.458459716627077 -4.418576539195815
-14.098527919658384 -7.46793064020884 -4.4381813573563464
-14.146054001247464 -7.479733014978567 -4.456986709684791
-14.193502118453758 -7.491780716505222 -4.475357602301499
-14.240177423740898 -7.503475933390707 -4.493399116325442
-14.309886510934984 -7.51859767535584 -4.519729392947653
-14.378121327997365 -7.530860834384168 -4.544517769084098
-14.451041453453303 -7.539904395291906 -4.570659617300859
-14.536498837860039 -7.546098480737465 -4.599888194861728
-14.642363719394654 -7.555352166462923 -4.633971801259555
-14.707483917846641 -7.56053540776114 -4.6531738037153385
-14.788971418259937 -7.5612290908564805 -4.676139073183128
-14.881127790886207 -7.552369760475534 -4.700569651962353
-14.95160335502516 -7.531717917497623 -4.71901273157586
-15.001343053652837 -7.5249242815192865 -4.729296589587355
-15.088765738387963 -7.514948297327324 -4.746497875902777
-15.167163275834318 -7.5146568975528965 -4.758992037387916
-15.22668758263166 -7.514510347275911 -4.766860382460486
-15.299072354546523 -7.513826733100142 -4.776567558709765
-15.384084220583661 -7.505213757334273 -4.783345482922872
-15.446203069468657 -7.504592271209747 -4.787117566445076
-15.556351899288513 -7.4917156680796815 -4.790380077505003
-15.644211868744444 -7.453721022607983 -4.791684132085475
-15.727332274442825 -7.4339309421973105 -4.787922805699814
-15.831713777152553 -7.422162123787436 -4.777823305051584
-15.892001301794968 -7.411878388696756 -4.76997920856709
-15.949243974679822 -7.403715425477605 -4.760565283860859
-16.019067194454077 -7.394053767288909 -4.746965988383609
-16.121863549949023 -7.3835769912099725 -4.722501078745499
-16.18042448275688 -7.379100706565131 -4.706570775768168
-16.239687785199887 -7.375939121717311 -4.688973040809357
-16.331128021072285 -7.367494958926491 -4.659298915673204
-16.40303143700482 -7.338348748180044 -4.635258594383899
-16.453133053628655 -7.303422780156412 -4.618619199135741
-16.495191254654177 -7.272106626422284 -4.6058483934545835
-16.54716088041963 -7.25506773014744 -4.584661413027652
-16.661126008662904 -7.268940479998157 -4.537478691473779
-16.730265393551264 -7.303647196358089 -4.5066556963022855
-16.82093905360742 -7.329042192271428 -4.466448909338213
-16.86777033691956 -7.33892895249045 -4.445603691926646
-16.92764280501666 -7.353737068955542 -4.418719495836629
-16.974484553961506 -7.366367979479044 -4.39747460672048
-17.036356901214013 -7.380792184998533 -4.369197295864916
-17.113074016402376 -7.3894566323417425 -4.334986697291768
-17.162106767335935 -7.394392839193651 -4.313567725498224
