359
-13.66215565041671 -8.931629602509716 23.231391729791728
-13.711999541982147 -8.872910882210967 23.278559733513227
-13.733624568159474 -8.82385000417003 23.300017760565133
-13.755185208055359 -8.77520161834487 23.320444985158538
-13.779746760213078 -8.722365979713794 23.342489791310427
-13.804239309378595 -8.668113017148604 23.363094858679077
-13.825372165806892 -8.609481462176326 23.379561187585907
-13.846816937547324 -8.53648089794621 23.394665370685555
-13.869637133322238 -8.475458980028964 23.409051762361898
-13.890698458511844 -8.423346295725946 23.421698407448044
-13.913879440538855 -8.3758746590006 23.43448804068484
-13.938375290086409 -8.321933921927002 23.446646536819834
-13.964414584135238 -8.257163892704854 23.45702451002592
-13.985319568711008 -8.20367027568421 23.464058248316263
-14.00334347315738 -8.157229030513342 23.470107204439
-14.02284363388807 -8.111048551478234 23.473464526386678
-14.042177231100991 -8.064005378045149 23.47743296961449
-14.07598952113507 -7.980008587534238 23.48080357955449
-14.1004982591115 -7.911574019743251 23.48037315567116
-14.119314933593339 -7.86292881556607 23.479879602547648
-14.14176766307506 -7.808956790461243 23.4792860332765
-14.165902725211538 -7.755546077831293 23.479546278349893
-14.203213000996378 -7.683495051518413 23.482708952792862
-14.243544822693 -7.603422274550137 23.484597431199372
-14.285947248177775 -7.4999060421026655 23.479219043337846
-14.312582561914597 -7.443870115731787 23.47965910387107
-14.33819368298777 -7.391226514430919 23.48067688558215
-14.37902740475113 -7.306945785173406 23.48226744882711
-14.408276633947498 -7.220101824164284 23.472194264680518
-14.426422389496016 -7.161874742639862 23.463945606146112
-14.453956929468113 -7.079231394550824 23.45403573601565
-14.47476779007835 -7.010291187777166 23.443130693388078
-14.49902298961847 -6.918985030258128 23.425488964475996
-14.519183071506246 -6.83415179609061 23.40661455567627
-14.5399628660399 -6.744337474620378 23.3854718586663
-14.569101810228002 -6.658547592246811 23.372052273392235
-14.586199023591126 -6.572969685415901 23.348268537407726
-14.601390363648173 -6.4935686061045494 23.324611872875366
-14.616146912872457 -6.425413876076312 23.30515073473037
-14.636351088736946 -6.364235805039976 23.293530792204507
-14.65295925124309 -6.313191296584509 23.283278349824933
-14.675670079055077 -6.242148671107409 23.268247579597073
-14.684716672521551 -6.19452807072807 23.251481967115673
-14.698065477874689 -6.113771355282041 23.221388756495166
-14.709586219361041 -6.053264727914039 23.198947816670277
-14.720597802712248 -6.006910147595617 23.183488499757075
-14.741307515378535 -5.937685589256628 23.162906886294856
-14.772106202558644 -5.840995529124285 23.135639890945143
-14.796137876102181 -5.775403780307666 23.117847897494553
-14.813948642685688 -5.721154296574983 23.10106118739126
-14.84034342004081 -5.649817520491486 23.080410309510796
-14.865531443608887 -5.590012889553436 23.064533505764814
-14.890951622742582 -5.521588539136838 23.04138029606015
-14.913521554007554 -5.4686527997743255 23.024995174905005
-14.929871700914589 -5.3958119542601635 22.988281741345826
-14.948610540337727 -5.323861340931741 22.951318101233085
-14.96301303681706 -5.273527455071893 22.924959014836013
-14.983235722134827 -5.223826059864051 22.903563741101898
-15.028518477403804 -5.140208481792225 22.872974763685264
-15.06347160209577 -5.064803398407223 22.837545409818702
-15.101322396176478 -4.985719058527064 22.795670833181227
-15.153818938025072 -4.9004481141967835 22.75120966504037
-15.208062932169446 -4.8384210713195355 22.73248003342496
-15.266290288360159 -4.777286951991775 22.71385781116025
-15.308934254495705 -4.733286229383127 22.6993488533259
-15.35717751109959 -4.682613632541651 22.6798915212047
-15.419319888064814 -4.618336249051331 22.65352903938123
-15.46328808769448 -4.575487714581789 22.635873197076947
-15.51488951866721 -4.526727344931776 22.615316938660474
-15.562050500985803 -4.482349018790894 22.59504708895893
-15.600830648276668 -4.446757805490037 22.57806587655351
-15.652718305859151 -4.397386665087893 22.551911123445937
-15.717609089478387 -4.333977593524963 22.513996927049945
-15.78665147348902 -4.2701723492930395 22.475002443289743
-15.831060800961671 -4.2230282766826575 22.43923720329164
-15.878032426867733 -4.169589742419145 22.3931180595668
-15.925562129360838 -4.11933954409792 22.351438818456117
-15.994129720466029 -4.055463089051764 22.299886327986197
-16.033629773492326 -4.014963169240182 22.261894640498664
-16.0774354485472 -3.9687353868400663 22.21684796558778
-16.118461170805016 -3.9302904124819698 22.179867874602024
-16.16633339967828 -3.8843819568760294 22.13283333826885
-16.210630636747698 -3.842021334114971 22.087275805387367
-16.26548234747182 -3.793431673910411 22.034299866850848
-16.317067428007633 -3.7543559731403313 21.99222629633309
-16.382783238157685 -3.7036297152446 21.93234422689275
-16.440151483204872 -3.65835378730588 21.873588962620225
-16.484137686667296 -3.6300064165726083 21.83649791963353
-16.529645913579014 -3.6033851144439737 21.801927861322632
-16.575283820003406 -3.579535477923245 21.768006767335077
-16.619031752456557 -3.5562318910481867 21.733491567869706
-16.658411956706207 -3.534035022765016 21.69518124766156
-16.697707178048134 -3.5137540202637307 21.657987815674076
-16.73654960872713 -3.49593773474791 21.621645686811988
-16.774323058612758 -3.4797773450853597 21.585424932004116
-16.8270674258577 -3.46067645253727 21.53503597603639
-16.87135293964426 -3.4485278836970163 21.495707411304288
-16.933305968729165 -3.4385748952343995 21.443925651717983
-16.99052635908157 -3.434948096089057 21.394099408472
-17.031269674561905 -3.434363163015469 21.353710674124102
-17.078773982634587 -3.4378469792434005 21.30599011214754
-17.126286665143656 -3.444269903572394 21.255972119091435
-17.178215684308714 -3.4571684093914516 21.204886430835817
-17.222799181494644 -3.471662995617267 21.169554070185512
-17.277253384242933 -3.4932628376676274 21.133009902663133
-17.33036492566289 -3.5171036292219435 21.09554261068284
-17.379078642848114 -3.541969393575103 21.05314166349381
-17.44177945679943 -3.5798116205490302 20.99641772001651
-17.506690746738023 -3.6235368852462626 20.94911850549311
-17.55034146569063 -3.6566377264081478 20.889609078058815
-17.58333785461872 -3.6863194869678155 20.835373871024075
-17.62433994457559 -3.7215565370494037 20.795212769435164
-17.681180725533764 -3.7725213660053 20.744823755359512
-17.72792455295712 -3.8169999131014984 20.70384554774229
-17.789058295288477 -3.8779205417365965 20.6539206727744
-17.82626603142245 -3.9177302646871723 20.612202681479026
-17.86568558660983 -3.9632938030323857 20.572756234275417
-17.90809539733271 -4.011906100289236 20.535057357851684
-17.94410426418512 -4.05533224820028 20.49988272985395
-17.992235493354507 -4.11622783808342 20.45143600690696
-18.050790416606368 -4.19652527433319 20.38001421770137
-18.09435321402642 -4.251420113967039 20.35221382925646
-18.13197323004409 -4.300703343646055 20.326428370500555
-18.160045197221727 -4.340097530284136 20.30416660415955
-18.19467194037359 -4.394672889941848 20.27234682808129
-18.217996503305656 -4.4355869793107106 20.244549443436693
-18.24309576267369 -4.484438107968327 20.21256091531936
-18.266236873844683 -4.533918309758346 20.179715493051393
-18.285845773839668 -4.58379818945588 20.144004042923676
-18.305957075668225 -4.635323024597172 20.1115586285711
-18.321426599123285 -4.680619856421296 20.08199561207024
-18.336902455881145 -4.7384127247603605 20.038217720403043
-18.349885451696863 -4.7913688581694815 20.000654993978262
-18.367214376330153 -4.872943205644298 19.944323316936167
-18.381654811446268 -4.954124379784353 19.888268907491515
-18.386434500304446 -5.007535474772172 19.84538264351443
-18.390875146271362 -5.079094529295519 19.78760750447258
-18.386918183651318 -5.131090804886101 19.73320090968813
-18.39358479684344 -5.219178032434549 19.67272997977248
-18.398321803504366 -5.2694626991030304 19.64074935125089
-18.402574269046028 -5.327417278947026 19.602925845245622
-18.408019790657548 -5.393890308048586 19.561410666697164
-18.415316666018022 -5.4581317765298305 19.52585525937622
-18.420750418109648 -5.506390297479573 19.499228190718473
-18.428213656607838 -5.567153949220901 19.46689781199221
-18.44364338548187 -5.665262842148393 19.419665746428755
-18.456399481231315 -5.751867528251772 19.376464165608468
-18.466012464016302 -5.820609924686399 19.340579570640003
-18.473638758271115 -5.8728136951671415 19.312792891738464
-18.484297850926126 -5.929364018442063 19.28625670083011
-18.50693056006194 -6.018109131196938 19.25618483839743
-18.51720616297507 -6.0925770049321155 19.218955043471937
-18.52718353076186 -6.159858123613727 19.188590364995164
-18.535919288570014 -6.216579522366374 19.16447165174397
-18.5515850535442 -6.298088400118045 19.135940722873016
-18.559324668011747 -6.36307999365805 19.10745871565002
-18.565377442360543 -6.430400028169495 19.075091394220184
-18.569109715410455 -6.475765839851556 19.05326245830068
-18.570108403739688 -6.52049586810306 19.027773196517906
-18.572127921170697 -6.573806760575229 18.999148191686604
-18.577157708333303 -6.6500238391200694 18.96268895681141
-18.57551736255484 -6.710155679490697 18.924886467596444
-18.571442034257878 -6.78875732027519 18.87348038005583
-18.558249913528464 -6.848309153794837 18.81829480773439
-18.5568256834526 -6.91815066711786 18.77728722101682
-18.55041164134777 -6.983279643625379 18.73167878246577
-18.545856755628513 -7.044557842523986 18.690488225396695
-18.541026780065557 -7.103827546128265 18.650196665593725
-18.535463153280823 -7.158347536845011 18.611421247803698
-18.51848538784843 -7.218128632862019 18.551304188760422
-18.509047265009087 -7.265209780017619 18.51091741706801
-18.496632721805007 -7.335834174165187 18.45175519265878
-18.487409356098134 -7.387616464792542 18.40839695884125
-18.480131266196857 -7.448861404817382 18.361556298597797
-18.468921364682593 -7.499226869651231 18.313873144597554
-18.459878629230026 -7.5463308355715295 18.26937498251748
-18.43657152794301 -7.599972552620219 18.19958340668293
-18.42773528128543 -7.658851748001769 18.146549402077234
-18.413902675787526 -7.704496571426562 18.090371300766705
-18.3959016895531 -7.741224077813628 18.027712816575164
-18.38287953332633 -7.779932517649078 17.966972633630323
-18.35552493398366 -7.8183029448180195 17.8660801339476
-18.336666059438315 -7.825834683884677 17.811980532277488
-18.311348663476345 -7.830518501674868 17.74145987655304
-18.295637229477556 -7.847583581731236 17.677275969718416
-18.277422578160113 -7.870469531850196 17.597445986228774
-18.24638839950594 -7.907812433014469 17.480043729492742
-18.202041015904996 -7.929376672471998 17.37922560190136
-18.179768645122273 -7.96981570868654 17.312116210261014
-18.149883896169612 -7.997788729094676 17.252474822871807
-18.12198254563058 -8.029970859494451 17.198332057044833
-18.07473516703928 -8.059015023808868 17.130415531949325
-18.00584870850127 -8.071079345977068 17.05602734693271
-17.958192367677547 -8.065830658403133 17.017010586945617
-17.923842987323752 -8.081171937630202 16.974301828199422
-17.885321961473046 -8.091323859417752 16.933648681289043
-17.831616279943766 -8.09427815291747 16.8845212235763
-17.776048579335082 -8.100969027848429 16.83166428091796
-17.732239459369907 -8.105203128153365 16.791125303046584
-17.67299323123438 -8.110827230937387 16.73685467246256
-17.610092415648197 -8.124433992617892 16.678087793360532
-17.561798701446172 -8.138127735382591 16.632118620280277
-17.51878043187829 -8.147592598228355 16.592840000328568
-17.45234596810989 -8.158768016917525 16.534093162998385
-17.389510124597194 -8.182460276126765 16.47534029113443
-17.350429428321256 -8.18795464250525 16.44231137880908
-17.311525007129177 -8.191554204223063 16.410016714068973
-17.255863610849943 -8.196981252664848 16.364191480906776
-17.187883041802007 -8.218364260694436 16.306035517125817
-17.140976963240377 -8.227536425424557 16.267754026037096
-17.08338085198124 -8.237002023193197 16.221334945482063
-17.0259265097143 -8.24791113641071 16.17604488886494
-16.958680731499157 -8.259076530973584 16.124142811142626
-16.910157752474305 -8.258370029630132 16.089703294174903
-16.851819414283227 -8.256423035646456 16.048883221975903
-16.794757267950537 -8.258225146414874 16.00908306015646
-16.740697941092122 -8.263076549921973 15.971369877624806
-16.67700360717992 -8.272086453266407 15.927779164810387
-16.60737058728016 -8.275781976873569 15.882750618269046
-16.54534264102454 -8.292354324705487 15.843023603883939
-16.47706701704304 -8.284148113210692 15.804656186054338
-16.359485143245188 -8.25278866117954 15.749216004202397
-16.261589114417955 -8.215850025900703 15.711049654792268
-16.162728666175713 -8.180018513527694 15.678974844457155
-16.09485899853346 -8.163289818347828 15.658139682535362
-16.005516767378296 -8.139664986506439 15.636006574441069
-15.934196942264698 -8.117401889799568 15.622070693526052
-15.883289970618375 -8.103847171375346 15.613262971343781
-15.806401254113867 -8.093245512338251 15.600900132376713
-15.747545877343342 -8.091691873688307 15.591885506786829
-15.633006447094079 -8.099279417375763 15.578202938408491
-15.533062084077356 -8.10181703951545 15.571360815532985
-15.48106857312314 -8.102787550635487 15.56919166362696
-15.417377404533251 -8.124186206748638 15.564366605234685
-15.36099932390032 -8.135729174884935 15.561835919816257
-15.293160764740136 -8.147047236428559 15.56100589420524
-15.226544920585296 -8.167189764581945 15.558299336813816
-15.142405800899555 -8.205349395082852 15.55746437884264
-15.04927462071623 -8.224746983726968 15.560468119603408
-14.955957495086713 -8.255758922252518 15.564534600203709
-14.894520211395813 -8.27185288985451 15.570343477804991
-14.821682635421903 -8.296778953488987 15.576852233793634
-14.717674907690306 -8.336901704601706 15.587173906643487
-14.63012551759687 -8.356578097965038 15.603508485961672
-14.557957666668003 -8.382923060479502 15.615251299322848
-14.480133511802949 -8.405040600255514 15.63275865674435
-14.376427549791613 -8.441632318728352 15.656495907442567
-14.308139483835342 -8.462242994986864 15.677124512221978
-14.248796291844865 -8.4642876018167 15.708774214240213
-14.184439451720994 -8.48448178755794 15.735403222514496
-14.095440088363224 -8.493306347914913 15.800297204964627
-14.02295114313608 -8.518434955767402 15.847066196263281
-13.98229775525762 -8.528027144759731 15.88803472411685
-13.920941888030498 -8.54775742503575 15.95029686779903
-13.873737922857012 -8.5722211543898 16.00086380990499
-13.831965369020919 -8.601409871818618 16.049470601467934
-13.794363508724894 -8.633261711982763 16.097993256624157
-13.758560124897016 -8.666747771195054 16.149022247711205
-13.720656877122211 -8.704922288180198 16.208646508085376
-13.695021369102152 -8.725915566983588 16.262847492648316
-13.662154480427448 -8.758062360149761 16.3163716453268
-13.636007236787687 -8.781773115539512 16.371601936866934
-13.600399413408226 -8.805847845972036 16.46274334856387
-13.604229597083473 -8.775180546770823 16.53830438435443
-13.599561938427312 -8.749220675226105 16.610676188261834
-13.597122328438628 -8.729827401791713 16.669758257562982
-13.59296609304208 -8.718678999855618 16.726284979329716
-13.59100126026917 -8.707010043509396 16.792212779029356
-13.590812476107894 -8.703681213048249 16.84306861609519
-13.588784804053288 -8.71297856675285 16.932235300266413
-13.592763627576343 -8.699670349148754 16.991305442622103
-13.594290981304594 -8.690614304784667 17.043339046824222
-13.591603210124363 -8.684602375978688 17.14765860794477
-13.58434464177296 -8.691013166338067 17.22538743587107
-13.571322757165229 -8.716482273174487 17.314829706839074
-13.55040711959296 -8.775861355835126 17.418307178153224
-13.538231492866041 -8.788007080054829 17.493118880851124
-13.53023925875196 -8.79587585564112 17.547556806816175
-13.518663114770948 -8.802401213607162 17.623287716092253
-13.503306234086963 -8.814269287373682 17.72947159865152
-13.48790626110882 -8.817083557918743 17.858794565015117
-13.469891829079605 -8.8423053174334 17.97664335742821
-13.451733086665262 -8.874568683248697 18.075668951871183
-13.43720133037856 -8.906701504500507 18.14679380787603
-13.416463174792389 -8.947650126594306 18.255937858013326
-13.403601860940352 -8.973068077923317 18.314474648339385
-13.389407725712612 -9.00068442802572 18.383681052458996
-13.374861189954785 -9.028153687970448 18.46091888389876
-13.363657462642616 -9.048536120086338 18.521007900739413
-13.350761706610585 -9.071840579957865 18.590355310255333
-13.337936534933679 -9.094750363426265 18.659583215697566
-13.325115302111525 -9.117509691968236 18.7285463636367
-13.311595720834749 -9.142072503344489 18.804229981203896
-13.288670058149693 -9.184460745112561 18.89556143462449
-13.278114618767049 -9.200972957883126 18.951518962273486
-13.263993247426175 -9.22424809544502 19.028643951898417
-13.253216426695554 -9.242293727297588 19.07671855468549
-13.238907867068448 -9.26501320496572 19.144509679314005
-13.226633037681365 -9.28337551045986 19.207547638187215
-13.213938056202714 -9.3020770820735 19.27171067212255
-13.200119912627319 -9.321954161960802 19.34267179882248
-13.190291516550964 -9.333995668203091 19.40414634929155
-13.175237910058584 -9.350124081499233 19.51038150242471
-13.161431551068398 -9.364087901407787 19.60543793608339
-13.155374102828452 -9.372394046649283 19.657430261008265
-13.143422881746622 -9.38332328536225 19.729709378804937
-13.133006524666119 -9.394091929848875 19.799660184914618
-13.124869122555163 -9.401005617578004 19.864640240090804
-13.113110481914815 -9.413264301708125 19.941375882962504
-13.102733448570103 -9.423744933224949 20.011864117048503
-13.092493448916589 -9.43381830614452 20.08224514505604
-13.08429674512237 -9.439453063335606 20.153167165200347
-13.075869465659302 -9.446875514629616 20.223167991532307
-13.069072980976195 -9.4445966325328 20.30890436106037
-13.058206838450607 -9.453564854205897 20.394048278863288
-13.048315225773669 -9.455467004744772 20.507400964153625
-13.043441940527773 -9.456508372756193 20.560372181611804
-13.0382456426667 -9.455086767866547 20.620711675130593
-13.03226166536154 -9.456957224964786 20.699541094760182
-13.026645571805629 -9.45901313019868 20.76189989877131
-13.019377746854845 -9.461861082573051 20.840719261943033
-13.013396277369678 -9.464396951720854 20.90946221654297
-13.008378207621147 -9.466890802118916 20.974336260151546
-12.997974989783184 -9.475563805780823 21.08110459179408
-12.992030889626857 -9.47613520198918 21.17289662071097
-12.988004399738726 -9.476397698162184 21.229639230446782
-12.983897450422145 -9.47668647137261 21.284847825640604
-12.9801603930838 -9.475493995969822 21.337530698474623
-12.97315716083219 -9.473168024071636 21.4283423021492
-12.96832389771259 -9.472867870386132 21.49041994943251
-12.960817602120905 -9.476252119200463 21.566012963762738
-12.953349777540547 -9.485705271177965 21.618517699100156
-12.94674910484215 -9.491386268950041 21.685372981248104
-12.939592744977135 -9.499843646166077 21.76495612180828
-12.936060754876678 -9.502956427424596 21.873609850333906
-12.937261955331424 -9.498345242470474 21.931813872347213
-12.941678164416862 -9.489511236869363 21.981484328661466
-12.951482290870146 -9.471325584760699 22.04570395503524
-12.963741320574044 -9.462294611414901 22.132771924443666
-12.975421621248227 -9.454698165245484 22.190583946043144
-12.990543624527225 -9.447946580612964 22.25563505654855
-13.005470296934433 -9.450323620971384 22.313124594800005
-13.025147872457078 -9.45654921966709 22.37781186313648
-13.057137077936693 -9.459217214255677 22.45654460987993
-13.099491647882555 -9.438211539205344 22.53481194146403
-13.155903138341898 -9.408201575977198 22.628660634300967
-13.184638366444759 -9.3670180010777 22.668935463762185
-13.2183724846135 -9.346161080907763 22.718567852592145
-13.244735063058068 -9.324276635491536 22.75598410152901
-13.282629085298648 -9.280852074156918 22.807471159226004
-13.319136427106464 -9.254161281645 22.856665094216694
-13.350369431677112 -9.233242121820842 22.897091673681356
-13.400300020632056 -9.209373756575285 22.958360132691364
-13.433785790048624 -9.180534738910783 22.99736072857587
-13.483060395992169 -9.15047894228688 23.049266576725966
-13.51305959075675 -9.103975103499929 23.084203202061076
-13.537891574129594 -9.064975092535619 23.110685235614497
-13.584167690940802 -9.013527039883337 23.15610614781314
-13.633270512210546 -8.964641557209209 23.203482306392296
