430
4.5277151212979145 -4.545476085046676 -7.424365953783527
4.472818208860131 -4.551400192278592 -7.457366664868314
4.396919549529912 -4.556876505277925 -7.5063236734473815
4.355102903006996 -4.559031710362136 -7.535614673298753
4.29593359244935 -4.562750296350051 -7.575120862292504
4.251470615035965 -4.566869961496916 -7.606242588913924
4.199403746156351 -4.57186132314718 -7.643764109861237
4.147404812708349 -4.573691478144028 -7.6831563730195835
4.097409627899358 -4.575382144625131 -7.723773792091494
4.046866439086669 -4.576506746302531 -7.7659408427613315
4.019190761559388 -4.577978927319657 -7.789499622835935
3.9932936038190805 -4.579356146066171 -7.811542560086988
3.9308730785193635 -4.586293474047663 -7.864302574138495
3.892628181591463 -4.5865870828561714 -7.901349847225131
3.848233502192769 -4.585659948505917 -7.945421058326984
3.7760365031729664 -4.579076654593665 -8.024348297699031
3.717541831903169 -4.58547205703277 -8.084936867954491
3.6707808987780632 -4.591095123962245 -8.135214057428556
3.625056435526616 -4.59524991752667 -8.188048988194785
3.5632827054866683 -4.602389884549452 -8.261842283810086
3.5146564691924347 -4.610147243442568 -8.322003922977395
3.454563137251027 -4.620715416490535 -8.399387415448315
3.3990748559582986 -4.631264139690621 -8.47461543239548
3.3407095950737675 -4.642458942238397 -8.560720800531644
3.2918303441214576 -4.654046403061956 -8.631425560804416
3.2551516130687 -4.6638563032668685 -8.68504171146534
3.218019431924281 -4.67421640046874 -8.739880806182452
3.180496287003098 -4.683106476824994 -8.797766594920049
3.1296831175169357 -4.696585410434887 -8.877021157446858
3.0890580332534023 -4.7099880057767685 -8.94127149194787
3.0395027534238523 -4.726290910993278 -9.021733517235463
3.0026533223010157 -4.733061783271485 -9.086597281256518
2.978056723699908 -4.735981353010981 -9.131169268410819
2.953955359940954 -4.739486148789437 -9.175713324418345
2.9301354858560913 -4.743058845637876 -9.22058619734509
2.8978120691305174 -4.74508268904467 -9.283820307255288
2.8602231647926777 -4.754160132804358 -9.355701321790509
2.8060390169982625 -4.771576045630198 -9.463391117030682
2.7746081952751966 -4.783524552828112 -9.528861141817147
2.7448719896073523 -4.796130985328389 -9.592427529055271
2.716701702402247 -4.8086564769078075 -9.656013593715496
2.690274248545434 -4.8214713781685425 -9.718899347030595
2.666112269770501 -4.8386748913954225 -9.779008641189877
2.644570970302719 -4.858190164700892 -9.837143319629638
2.621422534851388 -4.879779969423165 -9.905358468840467
2.607857964158251 -4.8975795916880625 -9.950703449568467
2.5883785764222584 -4.928318496634601 -10.025939704250693
2.5676745594852526 -4.966819721965691 -10.134204664664269
2.560167503486462 -5.000718490232137 -10.211146960953496
2.5608940997806124 -5.047888155670449 -10.296409193462694
2.5709396856338094 -5.099495805407359 -10.386809479405875
2.5829832529194294 -5.133543570570298 -10.451837968580339
2.605639367755845 -5.1839922711454705 -10.52938504067413
2.625723797088749 -5.2225861637868825 -10.578340087383935
2.6479828602044004 -5.26014522346658 -10.627016485417123
2.672346171771204 -5.296023267520766 -10.675998702240737
2.698591300030766 -5.331451593969955 -10.724833824302637
2.7270298785684184 -5.366348303495373 -10.77356300688701
2.7570498323006003 -5.40104726918903 -10.822229978092441
2.788684469828506 -5.435313328346227 -10.87112549073357
2.821471266345811 -5.469417813732457 -10.920286418411363
2.8558642170957587 -5.504397388663589 -10.969186348126996
2.8900034910064964 -5.540039744382359 -11.01825467140657
2.9260823753929626 -5.580124065057036 -11.066052809221798
2.961427246668732 -5.620587163219584 -11.112825378654247
2.9977405811735025 -5.665189035778292 -11.15996015920841
3.0337425340674367 -5.712198205437133 -11.206036484825026
3.060405847290218 -5.747027910055003 -11.241930069505491
3.090976353930621 -5.780382086397591 -11.289026100074677
3.1203602046489487 -5.812292054277571 -11.336145022323306
3.148670880322318 -5.844201074740431 -11.38162494410887
3.1867039712185283 -5.889361332177723 -11.443419525297072
3.2236421883270747 -5.924718018435554 -11.50796242328945
3.2526592828623393 -5.954711912612965 -11.558699110242287
3.2821439412653737 -5.985797708920727 -11.607561682896637
3.3112000878833334 -6.018868914567628 -11.656723759134453
3.3413345051535006 -6.050785878990808 -11.706300368389321
3.3718314873894566 -6.082199756739325 -11.756399682127075
3.403019710213849 -6.114274746058713 -11.80634634710812
3.4352233076791796 -6.146759433205134 -11.856372329323834
3.4674935305330576 -6.178560725221818 -11.905857859636322
3.501362888068716 -6.211558489099051 -11.95536821121519
3.536127364453603 -6.245423404243985 -12.003969228945286
3.571506149205288 -6.278711757989237 -12.05273234793151
3.607796910998866 -6.3112422903952385 -12.099855926270717
3.646439972336212 -6.344777400456794 -12.146620815689387
3.6857522312468785 -6.381088956511363 -12.190137855190462
3.7286685179252004 -6.413910819002954 -12.240344527009754
3.766625922090412 -6.445950693579954 -12.278177843865215
3.799742695726037 -6.465686843740608 -12.316236676838175
3.843656740727347 -6.492560251368156 -12.36279783156231
3.879460173390558 -6.514329495729273 -12.397524184298916
3.9469828278857233 -6.549289280335513 -12.463021175574639
4.014111840352758 -6.584605449954655 -12.519941686038484
4.112888882144706 -6.631877029879686 -12.595624111048508
4.178549683951947 -6.657366065179673 -12.646797158022183
4.2230607151986055 -6.67485545085488 -12.67765894697133
4.287531705612709 -6.703796369600081 -12.71918681079328
4.387391731431868 -6.729045413541085 -12.792071378453663
4.457965036342872 -6.755136135583809 -12.837464131591515
4.513988803914664 -6.771713841210081 -12.873593973438016
4.56913401813714 -6.780688938093739 -12.9126607926239
4.625457319152286 -6.790643656326351 -12.950827016756168
4.682946355555958 -6.801355355238471 -12.988110228305016
4.740200784484321 -6.812459761879213 -13.023885569529758
4.800007702063246 -6.821141746764395 -13.061788334605104
4.8639601457417445 -6.827354768613622 -13.102069792243876
4.9382680815847815 -6.834258650737009 -13.148110676141492
4.9918405643504835 -6.838695620066133 -13.179956137949649
5.052722768796496 -6.846100286133671 -13.214415435687343
5.114380223959066 -6.85488892518261 -13.247375043772184
5.176097244363732 -6.862258678967915 -13.279839299285554
5.238277179911031 -6.870819077462087 -13.311006236613146
5.300510253160908 -6.879253003258116 -13.341302048131963
5.362030691177607 -6.885240971503258 -13.371834115948667
5.412051739061393 -6.8905737461589105 -13.395453389684146
5.494170846400289 -6.898002793764173 -13.431921104306022
5.542797357750471 -6.90294535183509 -13.452652708204049
5.6346433661104225 -6.901260332298303 -13.494442903812795
5.699058459709795 -6.909210115451746 -13.519292240562823
5.770695505160265 -6.92408770587544 -13.543370686234807
5.8233156896805705 -6.930882927996439 -13.561523550049777
5.891996112222335 -6.935480764163177 -13.585214716594919
5.973636682722006 -6.950989930480379 -13.607755283835008
6.066288880556406 -6.949421751337894 -13.636824893285239
6.1443041718929665 -6.952467174594355 -13.657224108625583
6.220226967543557 -6.9536413621072075 -13.676177224355254
6.309968367959984 -6.960257013257017 -13.693953409598347
6.412436883163831 -6.939181510611727 -13.719211398861336
6.485383669041568 -6.925652235421486 -13.734187221127355
6.585002297082937 -6.920144708404903 -13.748983664795979
6.693460138494191 -6.884638232357137 -13.767994517367788
6.750255692545286 -6.873805861497564 -13.775316585492709
6.8135070475987245 -6.865109387787779 -13.781628827892716
6.878441611270802 -6.858802961927362 -13.786987415892403
6.935787361104083 -6.835727676819495 -13.79416829497744
7.0398264168373155 -6.79305740050218 -13.805645355262344
7.1298586479831085 -6.77655941876071 -13.812335597775283
7.199179806827059 -6.7578026203389285 -13.81660706861536
7.252136456891775 -6.743723976518151 -13.820390105512255
7.323740017970434 -6.709745667226182 -13.82708024460704
7.39746810517208 -6.682972649067745 -13.832783855131156
7.486804324377236 -6.664484949510177 -13.838519545703443
7.576308443314167 -6.636127887554039 -13.845248472588791
7.62770987507643 -6.611674173749982 -13.849979092017877
7.703411540930064 -6.580546558675346 -13.857084955218534
7.743913940406837 -6.551151925072915 -13.863179110794876
7.814075222616854 -6.513626795983216 -13.872233187676107
7.893886761742028 -6.486103267744072 -13.877232201796675
7.948977763501727 -6.452583735411119 -13.884759824504863
8.013739749331748 -6.430363783799894 -13.889529206997095
8.094842744609906 -6.412721139521173 -13.894152118369432
8.200118436257728 -6.375749106829609 -13.899797946999827
8.296105467270717 -6.345501121964405 -13.909082247532117
8.398512258269214 -6.310626206834971 -13.916533338294892
8.509075365119724 -6.259522280301184 -13.926407184742972
8.563333759439892 -6.226600389716847 -13.932174306809342
8.624627774784056 -6.193664886579705 -13.938006335877327
8.696122168102239 -6.151120967086012 -13.945579063703859
8.799639651205704 -6.084539923377379 -13.956636529068147
8.864533131290283 -6.030505434881351 -13.96481054992506
8.945569204593276 -6.002973505280458 -13.96887980776569
9.046239849879491 -5.971187788188425 -13.972265870857674
9.08439789022788 -5.927385775530643 -13.98007949133749
9.124625633670021 -5.888498542874201 -13.98502119874375
9.175542105710129 -5.857503075261898 -13.988433127249872
9.222736815662264 -5.837581514800532 -13.989908444724135
9.282132740895161 -5.810121147011339 -13.99302459866504
9.32643660143723 -5.757227516753499 -13.999006281224956
9.373241169469612 -5.712196606680137 -14.004040332099615
9.451233565221061 -5.6505900522348576 -14.00979596016242
9.514089151179277 -5.573370445997615 -14.017797756286429
9.559348217387754 -5.5281090245137605 -14.021715511479018
9.607335306125684 -5.483087092423698 -14.024904860154207
9.682416012923149 -5.413565933334669 -14.028956095419383
9.723213020142188 -5.377448763910097 -14.030464233127466
9.788207264778684 -5.327973271327075 -14.030981266088942
9.836643286111137 -5.2956059586129856 -14.03026564879404
9.888174131964242 -5.263191393742105 -14.028522457247918
9.96409242734012 -5.21407682167471 -14.025097176948707
10.034634548090136 -5.164616303343601 -14.020664824973503
10.084962171153604 -5.131161012558261 -14.016198096054156
10.15149628018147 -5.077697933748746 -14.009295046528033
10.218765357652302 -5.028029374785452 -14.000168556194795
10.266411089486924 -5.000419549133985 -13.991968770013562
10.312361011248203 -4.9743373492594385 -13.983420311063709
10.357929407668447 -4.948658085997833 -13.974022181110177
10.41233420255535 -4.924925766254027 -13.966655209969266
10.46061289689663 -4.888066586235686 -13.949882690517017
10.531192018919022 -4.846481371508569 -13.93021556622711
10.592439916290651 -4.812922632807952 -13.912946352773501
10.675468205988548 -4.766491988539373 -13.885910098284116
10.731321800528884 -4.738618469071412 -13.866120976328522
10.785620160280384 -4.709211091972807 -13.84539954494967
10.845194543638941 -4.680073933877309 -13.821548590735892
10.90099958572712 -4.647741640658396 -13.796968196689585
10.975171602455818 -4.594616182460118 -13.761560358793178
11.069991898457294 -4.525709613726114 -13.711448195671151
11.149921427042482 -4.48409820748223 -13.667002544219145
11.205762305875812 -4.444984970471069 -13.632979927107828
11.245284938322097 -4.414224658910902 -13.607208113786516
11.305907970716323 -4.370272857307811 -13.565930375794807
11.36948272074714 -4.3333923810262 -13.522150815451637
11.427003976424427 -4.29687297637693 -13.480320345004635
11.500590244928123 -4.253866562633125 -13.424100503743627
11.558819056980294 -4.222438120224663 -13.378482449794804
11.599935040631014 -4.200347484495383 -13.345309611478568
11.643987842264675 -4.176846365261616 -13.308297319674022
11.695503749815646 -4.153631167533874 -13.26354994486613
11.743510345933828 -4.134665878759153 -13.217885458207341
11.786854231407638 -4.114525653590787 -13.172087515125215
11.825428543506767 -4.093937372989712 -13.125922102267742
11.86140801843144 -4.073588394275096 -13.078878969391019
11.894503900719918 -4.056631752706741 -13.031462438789868
11.92554474382868 -4.039193102609795 -12.983069751886514
11.954483157190978 -4.02302954344545 -12.933723797441859
11.980767406140501 -4.004724113054886 -12.883111805925457
12.007192235550747 -3.989338807045878 -12.831019994940087
12.032728281741182 -3.973862372682754 -12.777783993200687
12.053073871044784 -3.9596737889701266 -12.732031330960446
12.080614002943431 -3.937596124701298 -12.667764025641837
12.109535181986146 -3.916184525282495 -12.600676641562242
12.129708140800343 -3.8980748177056475 -12.551258080776297
12.156796226979502 -3.875386066965485 -12.488354452019834
12.184233061764367 -3.854383913984638 -12.427525283422385
12.205794006394449 -3.840222585868734 -12.383902773641315
12.227848851040655 -3.825228550457264 -12.340341933379392
12.260432183696818 -3.797485680830352 -12.273796271953564
12.30447931266604 -3.7657821280020034 -12.195660334563392
12.335856354865754 -3.741216146211089 -12.137276378558937
12.36938778497413 -3.715650845747912 -12.079292136239136
12.407852282979682 -3.689627821354504 -12.01383995602813
12.440943864868174 -3.6510328493873256 -11.946938470373139
12.46285584604341 -3.626823873305945 -11.906314999568377
12.487219623781847 -3.589569637992295 -11.848602031199222
12.515967137709627 -3.5550629800927824 -11.790285377237083
12.544814610718504 -3.5205270438406764 -11.731845716345246
12.57674917087516 -3.470638116619205 -11.659065438496606
12.599590523591026 -3.434960181433957 -11.606968379981316
12.619762317116827 -3.40468393362033 -11.561791909644073
12.649784860039333 -3.3587957579369574 -11.493705006119681
12.67037035007732 -3.316347115735209 -11.438894844214776
12.689081276337529 -3.2762689191643517 -11.38887017834163
12.713349857659022 -3.2267064401630106 -11.32465125352195
12.735227962171166 -3.183596907317918 -11.267682212680048
12.757236004095311 -3.141312562145361 -11.210657401081662
12.778603275348473 -3.098397107064946 -11.153345578910198
12.793493671862823 -3.068389194951978 -11.113463238605013
12.812138775665673 -3.02562040982024 -11.05947684993762
12.830706306125155 -2.981130271816968 -11.003994856562155
12.847094701101753 -2.9357794115498717 -10.950516654095997
12.861156457083627 -2.8942800738090857 -10.902950352512986
12.87507007005414 -2.8405188477090237 -10.844423850542231
12.88741624287222 -2.7942503506069976 -10.793064263075966
12.90324249765856 -2.7540379580384045 -10.740644191419076
12.919270002167899 -2.7156180762688136 -10.68869599034699
12.929982887813715 -2.681947195240299 -10.646886284273473
12.941753822475334 -2.6430566330666485 -10.598998870794833
12.951442606450257 -2.5851769399786426 -10.536793914550675
12.965194899502787 -2.542137045784567 -10.47919224235507
12.975078568287604 -2.5144698027958774 -10.438163137091257
13.000097041428525 -2.464961152036028 -10.348593152187625
13.015065424803733 -2.4276374709183144 -10.285176470419007
13.025801339912 -2.3991355500038076 -10.238341544116237
13.035915991669725 -2.3758813713347107 -10.19283057332968
13.045430128658378 -2.3514502528577266 -10.147910715780155
13.052963604561484 -2.3264304917364518 -10.104639030798948
13.05867813669487 -2.29276561759306 -10.053809400063475
13.068763831040002 -2.2485844163614366 -9.974630688864222
13.074906614167567 -2.2016990948792476 -9.896175173733761
13.078761445033848 -2.169906517142767 -9.838180360502243
13.081489230099194 -2.1363123100600663 -9.77352273772387
13.082046176778722 -2.110867439923803 -9.725141103270417
13.079918056305218 -2.0814750295937094 -9.670729367791324
13.078181975069327 -2.0552256406585476 -9.615773291532427
13.076536062673 -2.033009744960282 -9.562776566950406
13.070775748006035 -2.002902139269049 -9.49616860891168
13.06418603290306 -1.9816640059480601 -9.44682738922199
13.058188368023032 -1.9601957444464835 -9.390620623901702
13.050325901804616 -1.93922757174139 -9.335593049256838
13.04063602030913 -1.9186304476867488 -9.280017980302203
13.027809027593971 -1.8952426494078927 -9.213724395683002
13.017688116126493 -1.8781696885917598 -9.16556467941104
13.00435718699449 -1.856479851313806 -9.104352552719234
12.99121993842131 -1.8348242353342183 -9.043092157170673
12.976277358475254 -1.811677192831373 -8.974738025855206
12.962821156992472 -1.7922456924269148 -8.910880756514802
12.94940910294289 -1.7745693743167053 -8.847566075218127
12.93526945004917 -1.758231411760176 -8.784057760731415
12.920709109894904 -1.7449091644659895 -8.720820611202198
12.904628406117105 -1.7339207025818082 -8.656178287787965
12.887436476658142 -1.7251394110295437 -8.591574567340125
12.866755550971995 -1.7177145769337492 -8.528225129835418
12.845738795052604 -1.7142403302382827 -8.46741736504651
12.815131810030394 -1.7181982489634526 -8.378605746168718
12.782072618854201 -1.7305474136210923 -8.293455035525696
12.75275520078604 -1.7422029472314207 -8.230743896034713
12.719240259470691 -1.75917293078538 -8.167648672928342
12.683569465481906 -1.7809695332874709 -8.105533554422964
12.658341364166912 -1.798562179668601 -8.064534686359622
12.631341314381444 -1.819146704003874 -8.023743257075946
12.596873105764324 -1.84819938867994 -7.976187894883239
12.562924821359708 -1.8751602108244043 -7.93261261970472
12.532505070010902 -1.8990713742070402 -7.897416123339681
12.497831643332265 -1.9261842744759063 -7.860688276113423
12.460044576370635 -1.956588662486082 -7.821913653755837
12.418136957852525 -1.9960265303228297 -7.778830111969723
12.387793094152848 -2.028860382692976 -7.746382479106842
12.347993762091377 -2.0710785993739247 -7.70538861973824
12.307730666135502 -2.1077015749345627 -7.669417902733569
12.26638446660785 -2.1457945794467363 -7.633592295082741
12.223647403684268 -2.1896130316327076 -7.595241682038186
12.185713768795281 -2.231785108667585 -7.5606671188195715
12.13860609953542 -2.2841599322850796 -7.518840477129389
12.078438543887724 -2.348911107727406 -7.4686654596032245
12.038013281572649 -2.3911136427101 -7.43612092377297
11.982827425918682 -2.4472755567886098 -7.393851704874232
11.933079608764107 -2.4907591789316594 -7.360464667458542
11.88263557539986 -2.5342568302600497 -7.327541207133814
11.83803841670279 -2.571789103559098 -7.299459706896496
11.775320106953753 -2.6158515995390537 -7.264895372406109
11.717298744390192 -2.652121297914568 -7.235843719026773
11.65889452231918 -2.6878476084643945 -7.207449985515739
11.598915259266182 -2.7214163234993247 -7.180222301543713
11.53591885071149 -2.754286708929248 -7.152998516528603
11.470147286826517 -2.803466662048022 -7.1187942898149625
11.428977944023138 -2.8292869467968176 -7.099835963738048
11.373019301890139 -2.859124024859021 -7.076080652968761
11.315193405037995 -2.8953130049843296 -7.050831479771611
11.2752094846256 -2.9199910126115247 -7.033407316474653
11.213147769817251 -2.947586123722397 -7.011004591554208
11.157435433135884 -2.976002925675698 -6.98987578609696
11.102729585216089 -3.003549475882713 -6.969464711351263
11.047860826836192 -3.031942488585904 -6.9489935162488266
10.990481815448742 -3.062393848867959 -6.927485933627217
10.922035117871552 -3.104478880333372 -6.900268274124754
10.882598161558246 -3.1254266240265918 -6.886037561858776
10.829540807677029 -3.154104338036238 -6.866640759146675
10.758640720081065 -3.1970700888798893 -6.840116359899531
10.663545141734215 -3.2506870426171806 -6.8064943822505235
10.622240040174738 -3.2756537989154983 -6.792955567830994
10.571840659173366 -3.3086727298867187 -6.776016743982888
10.497536965753746 -3.36166311313608 -6.750626578655416
10.451578224208951 -3.3983928245114603 -6.735003753437793
10.410502016231264 -3.431655678315626 -6.721437739824649
10.360209435536156 -3.472508435804969 -6.706094519099809
10.312489513574281 -3.513806795258514 -6.692049512121425
10.265768286623018 -3.5521807719888656 -6.679591441672972
10.215457038513549 -3.5879786618743275 -6.668627725183951
10.152391319954752 -3.6327261222587808 -6.656243611195361
10.109079723377665 -3.6619152002475124 -6.648645176307454
10.047694883653852 -3.6991328388207436 -6.640898011901717
9.971442744357999 -3.7343878128744037 -6.631767951160242
9.864867707481238 -3.7709371855618175 -6.624290766969498
9.788911488427594 -3.7884292681423597 -6.6216562428276315
9.718956910029373 -3.7918977360824275 -6.620086573320265
9.661837128369651 -3.789850414349742 -6.6191111116141474
9.612642583697179 -3.8097968780245592 -6.6182187758439195
9.548117658160145 -3.8369799928492254 -6.615600666851563
9.468444320529766 -3.8533848798248727 -6.6159864735378076
9.394035812647221 -3.882124763867454 -6.615336433966586
9.282809809227999 -3.921022557525132 -6.615966603597604
9.224412198613708 -3.9382798527751794 -6.6171112070819955
9.128835212107989 -3.9636453788298764 -6.62025114553782
9.069737485619228 -3.972355890475594 -6.623244249586689
8.984368524389073 -3.9897385430441465 -6.62757370498546
8.937287918002564 -3.994395719568871 -6.63075079714447
8.897751577919578 -3.998306846552734 -6.633418994411029
8.842227876874048 -4.002921164663284 -6.637544548672402
8.790747661822673 -4.013216819600564 -6.640983597140254
8.704008581261965 -4.033956486832103 -6.646766484749408
8.637470432634403 -4.048777038782752 -6.651724405529068
8.568956488001694 -4.060274103619282 -6.657034769709439
8.498989297207588 -4.0695473554122055 -6.663435586907752
8.428902649892294 -4.081890666360033 -6.66911330079869
8.351671394997437 -4.096478620877981 -6.675650042116679
8.277894132989553 -4.113455063884912 -6.681264922519345
8.212845094164507 -4.117996389255778 -6.6887031793820455
8.13879926501568 -4.121964194462143 -6.697156280930388
8.051239620408683 -4.1317345359613205 -6.70677220592054
7.959995349646463 -4.149121770874686 -6.715478048742401
7.897980354636602 -4.14077889104728 -6.726257599908632
7.821931467974894 -4.155122074793958 -6.732632670297477
7.771937919808962 -4.162568515741812 -6.738112531517642
7.721209092893872 -4.166766378906203 -6.744358888455521
7.651369830974464 -4.170167583528826 -6.753538973051349
7.570150398395307 -4.184381517197246 -6.762373123381325
7.519581980266236 -4.19009566757194 -6.7686225484219324
7.444342093101528 -4.200767556627401 -6.777799304538409
7.357212191137187 -4.222657518915526 -6.785936496963872
7.2820434673581715 -4.230945921086834 -6.795922059256105
7.198794032441265 -4.2390605417608995 -6.806930821396419
7.122694576903585 -4.249034315960345 -6.816794701222085
7.069364789519064 -4.256702854600468 -6.82288512085489
6.980494437318922 -4.271722273352741 -6.833627407081112
6.907851637530074 -4.29263700904149 -6.840023071833301
6.819461574847403 -4.313155663420859 -6.84962675129551
6.742224150102388 -4.328240725993101 -6.858276803785847
6.677913297297039 -4.330231037364891 -6.868646502821139
6.583077420501104 -4.341242310854561 -6.8813209056078986
6.517441874844073 -4.345688935573069 -6.892543072215968
6.461451299864291 -4.3591418900591465 -6.898710450999424
6.409164903420461 -4.362333096623574 -6.9066063393354415
6.345156598470536 -4.36866995609899 -6.916457765036396
6.283453038090162 -4.377373709727338 -6.925209791308815
6.222656139779473 -4.38431644855465 -6.934602034689799
6.163797849557525 -4.390424565693493 -6.943843267939922
6.1063761668927 -4.397358581276035 -6.952680333959643
6.045271673352172 -4.407025962412712 -6.961487292668647
5.968768439270878 -4.41889176258821 -6.9728226832132325
5.893671574341381 -4.429578083217388 -6.984724709720348
5.814132654069157 -4.440838948056832 -6.997056827423405
5.722995029480993 -4.45617768452329 -7.012243591721825
5.6661140715034275 -4.463318002376472 -7.022341989267405
5.598840895616756 -4.4707503444034025 -7.034913137460839
5.534301163975534 -4.472634501429567 -7.049340528782718
5.482070062475035 -4.477673486751229 -7.0597930404612015
5.417849635489738 -4.489192066924878 -7.0708018380542725
5.335778483643345 -4.494116219548793 -7.089518031516821
5.242081653707053 -4.497283295442118 -7.113394820749193
5.154172573886658 -4.496519838775966 -7.138875311586608
5.094752479440376 -4.503871123313244 -7.154760018055999
5.038118759745412 -4.509889152572879 -7.1717140710110705
4.951244885741634 -4.511291294675152 -7.2043250562072405
4.903429700790058 -4.513373029122122 -7.222886950726808
4.835917524204165 -4.517790479585589 -7.253640351951102
4.769631696643059 -4.520398220488896 -7.287493270539109
4.712031767818831 -4.522140070212054 -7.31707703343112
4.6349111891673065 -4.532562377739126 -7.361648305629281
4.5826755579674385 -4.540027419233098 -7.393059276583575
