425
20.453279713493245 -3.6273049076431514 -5.10417373732434
20.39320414809099 -3.6417871916420044 -5.135404942821603
20.30839783616609 -3.6503549165955267 -5.176451479421943
20.249008529700568 -3.660715020181403 -5.205225144068181
20.1919856809716 -3.6787599102888926 -5.23352403257978
20.107513665088433 -3.7132863934802174 -5.274083487521281
20.014582492724305 -3.720071276936878 -5.314706164070959
19.953507663068784 -3.7268785010738856 -5.340292049945299
19.891072630476817 -3.7268179663017484 -5.365375949231172
19.836012125496275 -3.728627760331909 -5.386898419973517
19.766802909609734 -3.7393410805859473 -5.412774761147437
19.688055780683783 -3.7390855948495005 -5.440390142136883
19.63810110588368 -3.7414374320442185 -5.456833973064514
19.55988996750905 -3.7519389997866197 -5.481159362067448
19.503243780730763 -3.7516101668404858 -5.498112183007075
19.41122155586103 -3.770330701331483 -5.522330421065252
19.337456961837322 -3.781194814579642 -5.540757378545681
19.288550560541605 -3.7889623729000927 -5.553001746091336
19.19675563859969 -3.805101323119967 -5.578079896831382
19.146012904618292 -3.8166790031965814 -5.591643413857019
19.08369875391068 -3.8354288464090605 -5.608192046317428
19.010770344295622 -3.857624343556079 -5.626984594585531
18.95489900277704 -3.893632041126704 -5.6393700575962935
18.90303176223201 -3.919937722237635 -5.6504674100926575
18.820971199931183 -3.953347334718421 -5.668062170964664
18.760093061377006 -3.9844095000149444 -5.67876460341308
18.693223667809978 -4.013532115687536 -5.6892746338419755
18.62429003604696 -4.026723126552665 -5.699725900869508
18.55477853594429 -4.03619564653634 -5.708605072283726
18.46557890895956 -4.05050469970457 -5.717795709071753
18.419522496853816 -4.0715230414576435 -5.717380531078187
18.35687690828354 -4.101679015281109 -5.7151015103693545
18.29508454671605 -4.129736907650132 -5.710224061042803
18.238314556468247 -4.15866602428375 -5.701184905703046
18.17376886471459 -4.211260694728161 -5.682012436441926
18.116656650136157 -4.241259907174193 -5.663508839027833
18.05469276906935 -4.269693816617479 -5.640881773771343
18.007993961089994 -4.295941921241397 -5.618800511160136
17.963048087829932 -4.314041485327207 -5.597841455670716
17.87877099462025 -4.342552647614506 -5.55605791744502
17.798567496122413 -4.37116689585906 -5.509248959110079
17.74057218337085 -4.394456843627557 -5.4707445145124
17.69359810917375 -4.413658918821122 -5.437283746214035
17.62714750048467 -4.438347538135999 -5.3883502555003755
17.578741326974793 -4.45704057642162 -5.350430244226503
17.530623475899855 -4.4795859545227525 -5.308754265990645
17.48576071140381 -4.5010664116872015 -5.267862168405071
17.43737361771074 -4.519995717384875 -5.225263780509348
17.38758734963863 -4.536698760887674 -5.181470287793372
17.340321154332308 -4.552739384834837 -5.13893580900397
17.26724006020553 -4.583978198866627 -5.067174553741786
17.20663241825197 -4.611471070188245 -5.004877168882507
17.164689179790045 -4.631221110048784 -4.960677336254842
17.109504683279994 -4.659635568529783 -4.899454885233968
17.07402235461585 -4.672524872993826 -4.8643625703643245
17.017083604982535 -4.687306572971759 -4.810287550337424
16.96629174156119 -4.700493814487375 -4.76200956525839
16.91144253787043 -4.7148273290443665 -4.709575766511946
16.857891283659825 -4.729246031055776 -4.659016945242582
16.790934782690016 -4.752617025542992 -4.59020325977086
16.748622015242045 -4.768321071915269 -4.5477402976160075
16.71221638088061 -4.784967421219211 -4.5078482646047195
16.655134714083673 -4.807746682186529 -4.447058139280394
16.61812659127436 -4.820593294591324 -4.408466189001685
16.526864871761042 -4.853317958626564 -4.311024295144421
16.44990746626399 -4.863885919324429 -4.240017361766587
16.395109958941195 -4.870867113014043 -4.188893089156324
16.31383855713466 -4.881128291099191 -4.112632876372036
16.268250008158383 -4.8903120730950995 -4.066938588565015
16.21615765516002 -4.898958731969076 -4.014529840451523
16.176573177048045 -4.9027582114573685 -3.9773001290724026
16.13219329074566 -4.922580359279856 -3.922680483958595
16.093151855579734 -4.961416027070779 -3.8577443557937183
16.067147741743042 -4.991783691439709 -3.810401204957961
16.01334946479534 -5.0439252141806445 -3.7193800359376987
15.965204971287136 -5.082519822897005 -3.6427118208940827
15.923153205072545 -5.111587293027569 -3.5791668754310635
15.872004085925317 -5.127879620856751 -3.5163254148236636
15.823865020659436 -5.143442211233031 -3.4564097770770097
15.78208740629991 -5.158066390122228 -3.4025899900441625
15.715750044835094 -5.174330759148521 -3.322364129686396
15.656954987724896 -5.1905401991646976 -3.2485383978536517
15.610568540881061 -5.205709003250435 -3.187951355103448
15.56662503889757 -5.221803708690328 -3.127204976153018
15.537044952962107 -5.232869141686035 -3.0851384752329416
15.48749283432606 -5.249261424509522 -3.0178736784128017
15.45160387951141 -5.2594829249045 -2.9696912964277993
15.409341261794111 -5.297022516826134 -2.8883389118804432
15.371528223125082 -5.320226153675234 -2.8255763793660478
15.341493805877157 -5.334335179643105 -2.7803259174645594
15.30612929207426 -5.345299551134807 -2.732168009601143
15.267418417994731 -5.357816680034173 -2.6793750218644794
15.21292127114025 -5.374580509165316 -2.607124375637154
15.17464465858436 -5.38604934389609 -2.5541225907946092
15.137919114929437 -5.414853914881896 -2.4897439409550426
15.105233918957973 -5.439134052327727 -2.433067080271315
15.050755038920729 -5.460029497414331 -2.356815408341291
14.997976055819228 -5.469517994491415 -2.291315638890655
14.961260194222593 -5.486441574152508 -2.236900065312402
14.921499636531554 -5.499495099001212 -2.1820489450024096
14.884575164848432 -5.510926264827232 -2.1313837549345944
14.826089805807234 -5.522710571143673 -2.0555235613209635
14.7474627294757 -5.523555478090319 -1.9642762411065258
14.684174919529141 -5.524464593238242 -1.8877127648203609
14.635545321357135 -5.527405293988332 -1.8266664919801865
14.572833589496293 -5.529334185126725 -1.7477693034644024
14.51453388718082 -5.543764991827301 -1.6630227163413354
14.474914743381655 -5.554691274701795 -1.6034168269691635
14.435836048035032 -5.565808707809188 -1.5438507901211953
14.396584576584427 -5.572849646413516 -1.4851674894139735
14.351588686973267 -5.575924864823592 -1.4200169659792867
14.305206945643963 -5.589148680163918 -1.3441333759577083
14.261941871133267 -5.600060073482405 -1.2716497505566067
14.229138687505635 -5.610038406079367 -1.213649838968673
14.19684557441239 -5.618062531203433 -1.1560791306276479
14.165396886753093 -5.626749823620391 -1.0994599825345133
14.13567260453852 -5.6339937369773825 -1.0418719953247828
14.108169807901284 -5.639971041407907 -0.9870897700126422
14.082992228335618 -5.643649824583706 -0.935927186999977
14.053789414925838 -5.641092246510375 -0.8791856233431368
14.027055940044978 -5.649275734095108 -0.8145783514401397
14.000233690499323 -5.650578843292529 -0.7500182049203148
13.977828440422462 -5.648757325538002 -0.6932890657541102
13.958261785941872 -5.64547563423703 -0.6388486419332478
13.939483873689767 -5.640506118319545 -0.5849290005025516
13.917112079448486 -5.632188792579809 -0.5135332957713503
13.896226640895883 -5.623324116401982 -0.44301987689723665
13.877502132737549 -5.613579735483189 -0.36725455084591374
13.861655581745678 -5.611284141523614 -0.2799508928489791
13.848649760101871 -5.608879159452546 -0.18070583869561396
13.843341424469202 -5.60937598190689 -0.11944900868720598
13.840298663764614 -5.610340904776432 -0.0514216112899466
13.838399746436343 -5.609045832027334 0.0287503482249698
13.842028056389099 -5.611437717010957 0.11302849081134037
13.848043856065996 -5.617052920105323 0.17954731057442297
13.860393381361677 -5.624851315522523 0.2689661961422165
13.872455943572167 -5.6138126938104085 0.36513870443457197
13.886208850386687 -5.602225176261615 0.4387800020918706
13.902354684350161 -5.598617449794542 0.5057537824146152
13.917631479395036 -5.587947884249916 0.5661538236078867
13.936194557756767 -5.577046822663264 0.6293677353140703
13.956927921427232 -5.566698484646876 0.6929293717249623
13.979657082229561 -5.555817306893092 0.7558678688484344
14.004625376133887 -5.540036082098811 0.8194403012024214
14.030831996490335 -5.530511259921933 0.8792231411223117
14.063217620723293 -5.512058951286948 0.9473776688572508
14.090985278553406 -5.51178137290108 1.0041701781023007
14.124484959502999 -5.5100498668975 1.0647744310558043
14.151214674044965 -5.506362965752339 1.1119876527320134
14.178866565663737 -5.487786312763717 1.1614996153338621
14.203768852998833 -5.461405309064654 1.2047547900128412
14.23223106706061 -5.430332960891219 1.2522949021921677
14.280166361339102 -5.39807289518877 1.3242656192429534
14.31152250447537 -5.37130375622246 1.368799517761849
14.38073933786741 -5.355864357092308 1.4602339749682178
14.424674604656737 -5.3449384780692055 1.5160197909177615
14.466901275496475 -5.3327300065206735 1.5673871880599517
14.515556834035284 -5.317969914633707 1.6271508126695657
14.573521354260958 -5.322761345904106 1.688954562683711
14.628894050063296 -5.332877523475118 1.748097850423175
14.688603551195728 -5.330093257188246 1.812057613478041
14.750928519259904 -5.307084951473504 1.8796177445408508
14.851171611585684 -5.343164896603669 1.9743326784540605
14.91179095094304 -5.353796265397202 2.0322637513063633
14.971445946715281 -5.374627104509452 2.086036056745537
15.027381993656446 -5.3936679804244125 2.1365369521052093
15.08925213224102 -5.424474617271102 2.1855329479325727
15.124476829862823 -5.445211452035827 2.214728863714491
15.162912021205106 -5.470395914483339 2.2473213786825195
15.201903827668012 -5.485925233007208 2.2782156654519037
15.240438634472273 -5.500737257043174 2.3096435544705347
15.27785912047034 -5.515598666750789 2.339742614823556
15.318013446910514 -5.535045843588669 2.3715272297240126
15.357334569152897 -5.551988016822039 2.4012395199735463
15.397081488219289 -5.565443818931017 2.4328059229214727
15.45243194989796 -5.585071604442303 2.4751824844296424
15.599057229556468 -5.597216956581947 2.593192519293779
15.671871022872457 -5.608309827050669 2.6498470963112357
15.725133728977342 -5.6241947071155085 2.688996072596674
15.786872181322869 -5.6404447408301905 2.733514810697689
15.849453109783859 -5.6583951140768605 2.778150975726426
15.909091362458273 -5.672331031970698 2.8208165533603085
15.956198775214336 -5.6800686611619495 2.854131937353789
16.042169451991626 -5.675057281292151 2.920151430491213
16.10961725644117 -5.667636180321262 2.9730723633544773
16.172764721826795 -5.661140783830849 3.0214480272384794
16.225259666754788 -5.655841257672176 3.060906817672614
16.276198304797873 -5.65048394804332 3.0986838266473633
16.336587693896792 -5.644616573945554 3.142546025515162
16.412468582335027 -5.6229806056782285 3.200354308116993
16.465022943195713 -5.611372554564754 3.238021725522106
16.584785988804107 -5.629473506301556 3.3109929035988737
16.66545637448444 -5.638611444901239 3.3594220490184643
16.725498411830163 -5.642860378330614 3.396093751310284
16.785329388395233 -5.637439983845739 3.435038507065462
16.86977646935369 -5.626240401124765 3.487152396322399
16.937347124440734 -5.6160534008059475 3.5282291390735088
17.000646870552394 -5.602261040619801 3.5671112265244913
17.05580923661124 -5.588737956244529 3.6005197512695633
17.11951103933981 -5.576228266348467 3.638558372373967
17.19625401985713 -5.569197390129251 3.6820634941199435
17.240422160371732 -5.561107958754189 3.706916972594094
17.291014213846196 -5.551790503436402 3.7355695684565555
17.395094518081358 -5.555608097815284 3.790400362151611
17.46170066011205 -5.555565090083695 3.825372532860925
17.52586731662329 -5.553355394231402 3.858837007643819
17.581395226496152 -5.563435766143524 3.887190052495667
17.634128410094277 -5.559916218158846 3.913510269699831
17.694006698836624 -5.547586947259456 3.944542737607592
17.772884550377324 -5.531500631111887 3.9843105276280513
17.847420913512 -5.52939741269097 4.02128096050285
17.913797087104495 -5.532490120673335 4.053692969511153
17.979032265020376 -5.534633111937303 4.084707364574456
18.045037177816813 -5.529417003476807 4.115699774022598
18.103551304123897 -5.530525129691178 4.143101195134758
18.161731954262365 -5.532000652897795 4.169940046293404
18.219326485692825 -5.533358815097687 4.196268333426982
18.27644604647017 -5.535442424169007 4.222217235385166
18.33687451343783 -5.53840731281283 4.249180548375985
18.43399965299216 -5.550026565204766 4.293008032418689
18.539699202428547 -5.563110311922438 4.339336026605041
18.598006973058514 -5.561532639173658 4.363869007632887
18.645238400281208 -5.5589875150404655 4.38360490416169
18.69231241533918 -5.556450032451432 4.403274615084088
18.73926597305036 -5.553696434546621 4.4225858706525525
18.78641187676101 -5.551371896909554 4.440857965751984
18.844254511236038 -5.548524075433273 4.464020229731272
18.926697322492092 -5.569270781188824 4.499339211932456
18.983112907339503 -5.580797454757925 4.522699956394833
19.09395082125373 -5.5828776671860965 4.565588179336651
19.159732222710378 -5.584811144441136 4.590881477208397
19.239411721873623 -5.571352048686594 4.616171187582251
19.277737248762786 -5.566653074454329 4.629028194658564
19.338600500269397 -5.565275726833663 4.649640736683396
19.399819997763146 -5.567053300270086 4.669593679246473
19.460962191695817 -5.57635764698921 4.691276385983738
19.54663080794107 -5.577059358996717 4.71698643996339
19.623086740976426 -5.581241317519165 4.739815186312704
19.723043511567987 -5.591407691047809 4.768850261810893
19.814299515779325 -5.597059701089417 4.793267572060381
19.880320332456826 -5.590713655861686 4.805909762399971
19.94857234666908 -5.584902047569505 4.818148698548581
20.049261445310968 -5.598354145648701 4.841019765989635
20.13699464108483 -5.592155183277118 4.852958663525197
20.216227214291774 -5.611120721807223 4.870312022545943
20.273313715900937 -5.611982617884825 4.877318323162741
20.322220302892017 -5.610600754968442 4.88102975122274
20.36718443698774 -5.60933020136884 4.884441107007706
20.480523398935937 -5.615178740946307 4.8936644512579015
20.613464689867303 -5.599749662994892 4.886658641892881
20.66974276190385 -5.591313396190738 4.881270620177345
20.743906181379383 -5.580744486382484 4.87135014728511
20.807534260234842 -5.568525861411786 4.8595311253649065
20.88767226536337 -5.55130160838997 4.840768257607797
20.956192327776975 -5.538220956212369 4.822353770771013
21.014606397482734 -5.531081333730602 4.80822176764136
21.076764673979376 -5.525815157300664 4.791387268800419
21.162082381260447 -5.510673229132322 4.761118424557396
21.24009335862233 -5.498033449762734 4.730861648877209
21.295142504309 -5.4772819268533155 4.701630022249025
21.346554272058068 -5.463891093800209 4.676110421028118
21.39247823874267 -5.458862109854774 4.654259126040154
21.44387669282853 -5.443783813518998 4.624164819680388
21.498201869822836 -5.424412395833627 4.589060888489041
21.551003083569622 -5.404666475656889 4.552713724759643
21.60227367859517 -5.384835043531359 4.514807574434579
21.647572568052013 -5.366180158259881 4.4792391584582605
21.702632531709682 -5.351480476409631 4.437089624018824
21.742561205861474 -5.343906855189571 4.406847876837074
21.789642297442967 -5.331565424888915 4.3670770267661965
21.85280755059832 -5.322478686793463 4.313944268957213
21.925911704191694 -5.289905660844431 4.234905170671313
21.975049109856403 -5.280529710331203 4.182311438228968
22.010570132676992 -5.275100209983597 4.140633547142944
22.04736290759494 -5.263862456432995 4.0897472984930126
22.07676376404212 -5.2521403841179986 4.043941025394774
22.114821401065203 -5.241297977562311 3.9812553887452378
22.151495351050777 -5.233428934149277 3.9174260792061437
22.187843738673443 -5.225829809376 3.8492892251551263
22.211956767164974 -5.208464612286326 3.7889660935230403
22.23518504171427 -5.199925638783068 3.73512013399454
22.260199850930658 -5.187080364584114 3.6720673090539506
22.281814910091104 -5.1721232810728335 3.611084742331257
22.30413269650672 -5.158757293500884 3.5490155569600024
22.32827461070705 -5.1448115197669395 3.481207517321402
22.346673193541495 -5.115660104336776 3.407450561877308
22.36769654660827 -5.104118301303329 3.3493140752420283
22.386862453343923 -5.083855748088215 3.2851282416480236
22.406328013480238 -5.0543544187514895 3.2106889939164196
22.428788661085946 -5.036361179531986 3.1449154647301834
22.443498779296203 -5.021058120014994 3.0975076972604336
22.45259710701572 -4.991246764850287 3.048097299088565
22.46895371405982 -4.951701298271155 2.9755835657221335
22.49843103383944 -4.9162737917455335 2.885713832013062
22.54047110100752 -4.884616943109422 2.7800054247930692
22.568306647034916 -4.854361850929207 2.7012262980301287
22.605800751460833 -4.852458178517262 2.6312135445576423
22.623262311001845 -4.832197761174785 2.579794302452841
22.645615279064245 -4.824160161705771 2.533420127164919
22.687966265822297 -4.829563546525152 2.459807209720756
22.7102706818156 -4.82243599035786 2.4116846023830627
22.74920267861988 -4.816950260874995 2.333950734773822
22.774163657085758 -4.814235376260541 2.284678542299086
22.812122094202675 -4.8099313816655815 2.208398454065315
22.834036874667294 -4.795156008759003 2.154456096626107
22.86329946980384 -4.77648685577109 2.0828343809497243
22.896195010737674 -4.765956863664063 2.009908430011044
22.916912126878962 -4.748726958973801 1.9554772662351514
22.943926912136508 -4.731140980803524 1.8887653736264332
22.969716918767475 -4.710623411039448 1.8221481779427977
23.00361767717464 -4.673009519879746 1.7266798884029049
23.03539177189188 -4.658999602216275 1.6540232005846827
23.07292264185259 -4.6553535049619335 1.5786982270918521
23.108044699165138 -4.648824604732342 1.5058061816613115
23.14680535508819 -4.631203314781814 1.4175453100199378
23.173078808073758 -4.616988313846365 1.353903698794615
23.202446650119136 -4.591057646820151 1.2798335393709537
23.222878299347833 -4.568273289212632 1.2236296747021158
23.25430625555473 -4.5510945374678204 1.1512834779241556
23.278306729557222 -4.544411559406812 1.1003214693565009
23.30602628006806 -4.538036977635629 1.0423918260059248
23.325235278157926 -4.526525506028586 0.9976728372837798
23.351917408663525 -4.506014334883501 0.9330766303587072
23.382825004976826 -4.485167251840831 0.8586191620066144
23.416561768500628 -4.488609716041886 0.7975987531045394
23.44308665499669 -4.485704652739591 0.7453241410093541
23.461614944305094 -4.47993030809619 0.7068371071575661
23.481697859452247 -4.473672525106547 0.6651184657503104
23.527670604727614 -4.46425583358602 0.5743541470310318
23.565492052089997 -4.468446012618044 0.5049324595922728
23.60275582748968 -4.4553064942725555 0.4319766082315075
23.635047146664157 -4.443236551272404 0.36996046708748276
23.670092041544926 -4.42660972363455 0.30358225351471413
23.69370097702735 -4.414143152832326 0.2572836360005035
23.73415606475927 -4.390866093978577 0.18098882205700262
23.761780236960583 -4.368718626617974 0.12919794010421715
23.78486972306983 -4.348965855900407 0.08654307489306401
23.800372210254956 -4.33613899512392 0.056927662514307364
23.82419914310713 -4.3164252592214085 0.011409001018045206
23.856214168861197 -4.291650148298396 -0.05692206872141359
23.877003374975043 -4.276894217145597 -0.10764781363681797
23.896683179706507 -4.254398613738058 -0.15720532037454626
23.917102946654097 -4.225612830525137 -0.21525863294855707
23.938511439726213 -4.19017920977719 -0.29193743445440123
23.9544571622033 -4.159570854246603 -0.35905355449461407
23.969554400133205 -4.124534764975573 -0.43353094096268263
23.97893708266754 -4.096232816893984 -0.49531906109792967
23.983717458040626 -4.061975596260098 -0.575803474871819
23.979096766768958 -4.03123145347697 -0.6632583589240848
23.9672904710225 -4.0002880649262496 -0.7365625742330832
23.944159062098695 -3.95172747173541 -0.8308857588673659
23.926387008864054 -3.946294818937396 -0.8903063585294941
23.907680819963392 -3.945498459933214 -0.9460381699400644
23.87353075208884 -3.94849409621534 -1.0391655114790082
23.834019646401067 -3.939048448212949 -1.142135657976889
23.803429172669613 -3.928005948135417 -1.2185761689044852
23.771968733895196 -3.9224875469725236 -1.294469169939621
23.735121810982204 -3.919607480720165 -1.3809745576612642
23.710096654023253 -3.906170369935678 -1.4370059322561293
23.684517353811625 -3.8894118898034478 -1.492866971147747
23.659150375303025 -3.8832620087844774 -1.5485575224310901
23.625870686282973 -3.8785618731725053 -1.6196277720215724
23.6018895574789 -3.883888772096892 -1.6725388486100055
23.567006913316842 -3.892056621906578 -1.7490801288935733
23.528990579899084 -3.8880846513412823 -1.8271860717498647
23.489643125975384 -3.89310605011507 -1.9096569318387644
23.450733348589527 -3.9024228982757307 -1.9916912879840059
23.403760100812494 -3.9199025570372754 -2.0910329362633764
23.370258891393345 -3.928486678949122 -2.160639421028012
23.34059345588481 -3.935641098414612 -2.2224783089616538
23.306759266874717 -3.9507933294753323 -2.2943891914594277
23.275214671853433 -3.9641958466205303 -2.361084440196457
23.22661672015051 -3.9498523169457993 -2.451811624050498
23.199658401262386 -3.961450448764002 -2.5043443146580304
23.17200839375757 -3.9508177028564617 -2.551341382776107
23.113872649328155 -3.947937417704037 -2.660277193718461
23.07314662395378 -3.958638583905561 -2.7370338393684928
23.046162084054455 -3.9710593079361916 -2.792024511762129
23.005554634993555 -3.961886316554029 -2.858574518035618
22.953822883601717 -3.9448684857203764 -2.9388838476765975
22.921567092368953 -3.9302214371502675 -2.9855204083638824
22.877767524679467 -3.9223783297771657 -3.0536955022456014
22.842987613940075 -3.896771646859005 -3.0961523842241148
22.80865894653823 -3.89041481939024 -3.147816357037983
22.757540626141374 -3.8690735359166766 -3.2150918510328976
22.709604058594405 -3.840069542203662 -3.273357885255023
22.678554585294783 -3.817013758967809 -3.308387741275484
22.647477247704877 -3.7933921986397783 -3.343203967952398
22.604735418799194 -3.7650429720693186 -3.3921518215750597
22.533010069522803 -3.723266960779032 -3.477143460216196
22.47088042239608 -3.706848316794428 -3.5574561244274983
22.42284010839472 -3.6738500751548298 -3.609251167709115
22.357802987893578 -3.667536326965304 -3.694347838567253
22.32765418322348 -3.67288456911157 -3.7334543989682487
22.29308367063513 -3.6786614810364675 -3.7791786782976082
22.2551748726197 -3.6695235042989562 -3.8220388224967934
22.208037292002917 -3.6654912665553656 -3.8762816902061203
22.16755818332868 -3.655454872705943 -3.9206696371306187
22.12878706084866 -3.640027115305392 -3.9591216223237202
22.09289675541938 -3.6310590889191143 -3.9966190108570028
22.04891759319909 -3.621178130424929 -4.041353871238066
22.0013536148672 -3.611966090859992 -4.089081732533604
21.95557930059954 -3.595492202029563 -4.131910938302902
21.89361859716973 -3.586785312081748 -4.192812892993805
21.852050989907664 -3.5678002569566605 -4.228181018688566
21.813728662222275 -3.555019775444565 -4.262274302461956
21.72695547988561 -3.5589835400492333 -4.341760060422795
21.65816935900975 -3.5440791931341087 -4.39984253851625
21.598517758463494 -3.551181015764149 -4.449775264401359
21.534681904557562 -3.5524884527172924 -4.499775417267868
21.477967607896026 -3.555508391510781 -4.542404310677492
21.42580102447268 -3.5651030003900965 -4.580001400927689
21.364165483833318 -3.5563350187365668 -4.620802140566468
21.293549171245864 -3.5511518539457674 -4.665454646195283
21.2242517429017 -3.553442652402044 -4.7074163018506505
21.179861781941945 -3.5502716970406496 -4.733568338687721
21.11024427914985 -3.5411191099420556 -4.770587812667217
21.038185334644698 -3.5476022869241266 -4.809653619043258
20.961785456617662 -3.5532774652818944 -4.848830992237481
20.88502961371908 -3.5586215501971514 -4.887538945279982
20.821084450665136 -3.558499559892109 -4.9186606707505796
20.742379435983757 -3.559628886902644 -4.956632269833527
20.649725597156117 -3.5645145105966316 -5.001218504558446
20.582444947228012 -3.5798486469717083 -5.036212987842918
20.51189139670889 -3.6057719225614546 -5.0729636683276365
