526
-11.951527239672075 -13.128157928277108 6.658063086153762
-12.020757582677133 -13.149851594631134 6.681796472818973
-12.073677068055577 -13.167742635285066 6.70081118821494
-12.17626962454417 -13.197237612069646 6.746302060281534
-12.227144436469734 -13.210992440369841 6.772670283951486
-12.279517383545718 -13.229959905780543 6.798919564489596
-12.330337171781576 -13.24174570295625 6.833023312744368
-12.377577487417721 -13.253785038201938 6.865526925456252
-12.423150478843212 -13.268955516366741 6.897239707313212
-12.470158197668628 -13.290729953581085 6.9296880896248725
-12.515352728520657 -13.314197620159028 6.961442533716047
-12.558761867086062 -13.331071606052463 6.996447333031687
-12.602082293079462 -13.347447683192192 7.0327248487757075
-12.672165764358635 -13.374998825419368 7.093134530820826
-12.73420918620495 -13.391439650886158 7.15023634144856
-12.781447829143413 -13.402440868450807 7.193978719138498
-12.831116856370649 -13.417944963873234 7.2375113164463505
-12.901061454411785 -13.440099570278761 7.297748798571637
-12.956876225744281 -13.45630770233852 7.345042716284814
-13.02037458977819 -13.47389104044391 7.397456518678717
-13.086973980087233 -13.486013010226774 7.451053160159858
-13.155866438167543 -13.495594237760312 7.506179950206761
-13.198853192333416 -13.502331876029846 7.539549945701282
-13.296183677471824 -13.514837082469004 7.616684167100327
-13.3357143397999 -13.517268716519173 7.6504183216753265
-13.397056089440085 -13.523654116493736 7.699533979956337
-13.440626280549012 -13.526811370153517 7.73623883451425
-13.487715089706278 -13.51636949431984 7.782058722744482
-13.529859593952391 -13.502323705041285 7.825457732003086
-13.573284539788407 -13.48875249368717 7.870532281356172
-13.617605403837974 -13.47701082132673 7.915575632063356
-13.662821945505314 -13.465332118697361 7.961945067457425
-13.704597417246173 -13.4416650243544 8.010594284350992
-13.74709719029666 -13.416683205052154 8.060519444118489
-13.790714779156403 -13.38742334856564 8.113657598273011
-13.834333697765384 -13.351055431055372 8.169879456732318
-13.875249794932664 -13.316649903328363 8.223160923512632
-13.902039011954418 -13.29193057633968 8.259251117374157
-13.929009301629119 -13.267250769684757 8.295520596798674
-13.95624985583256 -13.243790739161891 8.331642985413989
-13.982437671720664 -13.217145428032753 8.368405903881213
-14.009790088116421 -13.18196812027291 8.409406705689026
-14.03312727038428 -13.152861242886425 8.443945322126266
-14.058397048702076 -13.121188370551597 8.481757595842794
-14.102557429410702 -13.061299371370726 8.549939522738018
-14.130412002381131 -13.00674155617147 8.59796133269068
-14.150890067635288 -12.948809868164386 8.638748887065098
-14.174249232711702 -12.909527840951355 8.67698073010304
-14.198342795723157 -12.875102576511676 8.71563787072129
-14.222534445650208 -12.844041624818045 8.753513270033496
-14.247542721293353 -12.81562204438617 8.791819592834257
-14.285812090379185 -12.765562706784632 8.853230143505884
-14.323143699226751 -12.747083039957623 8.90617553634453
-14.363623352622735 -12.736683979637974 8.962577258481822
-14.404272451987403 -12.73024765570273 9.020207359995984
-14.450340302930226 -12.73123032052586 9.085571655495905
-14.484602925297377 -12.730426589435613 9.136328382584706
-14.517191350291938 -12.724287111512306 9.187746143472223
-14.560271595732118 -12.712065236044074 9.258283850266745
-14.58886823410279 -12.701104991214763 9.306670028144442
-14.620684733225524 -12.688732786977543 9.36022726956884
-14.653534986381764 -12.680000182519056 9.414636382372805
-14.686608814445325 -12.66941739907134 9.469551965305435
-14.720488062402996 -12.662961063898095 9.52540279789642
-14.753746564489884 -12.659335628492169 9.582848582689365
-14.788620922104158 -12.648016300599178 9.638791095388232
-14.822667894298238 -12.636895283748 9.69637277479349
-14.856902635360477 -12.62621559942752 9.754599680870228
-14.891356338613289 -12.615345620360772 9.813245116325039
-14.925731568518813 -12.604252799413533 9.872565461024317
-14.960323093305291 -12.59288080216059 9.932217602573354
-14.997888556306364 -12.582117725206063 9.998165574479529
-15.029035330528135 -12.573572229681442 10.053214331287288
-15.0643854214909 -12.563873928752018 10.115690953670521
-15.090455203970802 -12.556721175041439 10.161770461588103
-15.12282252104323 -12.548333607323858 10.222317718214061
-15.151430422696283 -12.55486143245266 10.275103412596133
-15.190284648381468 -12.563017061798526 10.349264581432386
-15.22247560593657 -12.56948194535974 10.411709368371822
-15.254363842395406 -12.575379092051243 10.474983269106378
-15.283580692012475 -12.582681003098658 10.53553227860371
-15.321188215424911 -12.59235040978496 10.616498990458592
-15.35080655780079 -12.59199546988438 10.680609586145188
-15.382901639779988 -12.590090406885187 10.753401717161893
-15.406667813812902 -12.589624529284405 10.80921173424117
-15.434287517336827 -12.573538060609028 10.873547746140439
-15.457969476717661 -12.556782141372217 10.92947368142855
-15.479472974204104 -12.546094930534146 10.980832607758764
-15.504744058580755 -12.532492399703198 11.046175636352295
-15.52819199593143 -12.527200968577763 11.11031473870358
-15.554691855246176 -12.521904843077849 11.188001281265059
-15.570790764123444 -12.526836833443312 11.239966937838055
-15.589335765836836 -12.534137613885111 11.304953919546445
-15.615081959539165 -12.543945115863147 11.403306247599732
-15.63696667569068 -12.56361775104057 11.5070836551737
-15.651990475194445 -12.578812488485509 11.592717772011335
-15.663880283661157 -12.588778365509018 11.67262232208517
-15.673041694765615 -12.594232980297962 11.742798002435126
-15.679623704657388 -12.597333852869607 11.806600492377758
-15.686112953969854 -12.599592245165962 11.886125892385046
-15.6891212480576 -12.603246007132913 11.974390417661134
-15.690506563282167 -12.604122493985566 12.038485960711656
-15.690258806462033 -12.603255829939215 12.090618484972232
-15.690167788042483 -12.597775062254627 12.158023899920785
-15.684734698841662 -12.601211478332182 12.250344988630538
-15.681356032232738 -12.60028439726718 12.304728527613698
-15.67660070446799 -12.598524855297212 12.362312258100069
-15.666429508044757 -12.609374453824259 12.441915584777455
-15.657456744867144 -12.614052685493439 12.511530503343215
-15.6466677105186 -12.621614503757325 12.581281982394295
-15.633804035930993 -12.631039716839929 12.651207513292142
-15.618773021282095 -12.641530145726488 12.731013101963278
-15.604386094228573 -12.65653694210221 12.791057394386563
-15.583985303623379 -12.675617447398945 12.87365656661762
-15.57287284514236 -12.685209154322084 12.915765424288413
-15.556672529257309 -12.699192403218053 12.977156907342838
-15.538955432089217 -12.71195926053617 13.047678817442929
-15.518610453453668 -12.728461050893124 13.117076645317296
-15.497619099840719 -12.745343859923748 13.185312487852372
-15.48173040689747 -12.755590090742182 13.238221877881141
-15.456558628445247 -12.771806964403247 13.326642010442027
-15.434101794841368 -12.78737189924102 13.395686337460956
-15.413347755088004 -12.80246549670018 13.45705705902182
-15.393836042101952 -12.820104677784983 13.507632840846874
-15.368631055886333 -12.842387751881237 13.5734417047855
-15.343795636681616 -12.861364564896334 13.639788420072506
-15.322347648855075 -12.87430543408361 13.702979901081708
-15.297671224486866 -12.887853483489273 13.774993031390864
-15.273859974062542 -12.901996356603423 13.841259432671734
-15.250988608745015 -12.913636119468933 13.907931495633703
-15.22883054161343 -12.92310092955121 13.97490121138673
-15.207110245238773 -12.931877009777086 14.041337883767824
-15.174347764714618 -12.954014480609317 14.124432027124925
-15.138336526294886 -12.979482194924831 14.212026065091125
-15.105575834618918 -13.009590580892588 14.27693558594957
-15.078991967433108 -13.033233152807638 14.329863480827767
-15.044982205561613 -13.061821947372318 14.399640038089276
-15.001437919640217 -13.097781176017712 14.488188404131218
-14.964026515732872 -13.13235386127177 14.553832575971906
-14.939316670765809 -13.155113938090729 14.59665018438902
-14.90739805951688 -13.184515096481618 14.651959532260854
-14.883879315985443 -13.205936793307977 14.69497477669479
-14.859919514983972 -13.227748434862516 14.738912593370756
-14.836675105618063 -13.248910814589998 14.781540776956827
-14.80506984829669 -13.277342997594905 14.839469272645282
-14.771677866386206 -13.305551874823639 14.905630876124256
-14.74191842908748 -13.329717634735754 14.965748753902941
-14.712971804022754 -13.35194023075098 15.024560244733918
-14.685182868873472 -13.371488503869381 15.082420883607764
-14.658831135926071 -13.388480888550781 15.139980690196651
-14.634679565449101 -13.404350056988378 15.18680416112532
-14.601461962699826 -13.429405625028455 15.243619852813104
-14.571265974921612 -13.45072847332794 15.292024492790304
-14.542101115249391 -13.470057763025675 15.341009466313068
-14.51199455367918 -13.487297319329139 15.388909198745061
-14.480633933003247 -13.504205321517889 15.435743065354199
-14.447953467172116 -13.521456092220397 15.48371543197413
-14.414393395382337 -13.537178237152066 15.530822263462458
-14.380052368147126 -13.549654822383651 15.579340609974487
-14.344256843166328 -13.561056828871775 15.62834199571066
-14.306216201456422 -13.572079544058083 15.677558601044215
-14.250759541365266 -13.586918847338556 15.746836404745132
-14.196947179398698 -13.591090959215169 15.816838856698691
-14.152759209020687 -13.592968335684741 15.873287571245704
-14.110435046144655 -13.594343658469036 15.92500247706639
-14.088885610355476 -13.595868424454704 15.950084966893517
-14.054454375961871 -13.597802781035451 15.989030677183916
-14.001354019209586 -13.59943785711586 16.04973299129308
-13.938953187264055 -13.607298916503982 16.113859034142145
-13.895107442952177 -13.614779677509473 16.159221855321544
-13.855206953455024 -13.621997754697158 16.20120121702321
-13.814515523646833 -13.629742728223885 16.2441433166743
-13.773309010179325 -13.637942628385865 16.287834700509254
-13.731374688762571 -13.646579453029798 16.33230787730829
-13.688693960312218 -13.656782302405835 16.37695806328093
-13.645685094079738 -13.663794053482484 16.423596502096537
-13.602213071288094 -13.672040993896594 16.47056302081898
-13.557558732703551 -13.680573092705373 16.518300138400175
-13.50136934705393 -13.69089685933404 16.577899478921633
-13.439523493779177 -13.694931462110826 16.648592377787836
-13.38826784496229 -13.69628280987693 16.70809719583194
-13.352800373779765 -13.698241471346932 16.746482605178123
-13.294168523129173 -13.708892214616522 16.803230736079016
-13.24427272925696 -13.71739754100232 16.84937107986744
-13.194116694809637 -13.72276819499772 16.8966670153206
-13.143067789597588 -13.727910702454682 16.943410689505523
-13.092687900460454 -13.732674819316184 16.988205447362812
-13.025546871566586 -13.736807874337838 17.046557461535023
-12.97201073980343 -13.739012830176568 17.091724634619663
-12.917208727777009 -13.7406248298362 17.135813856818626
-12.860597954524334 -13.741706825163241 17.17941513501336
-12.803914575071968 -13.740642625761321 17.222454946601328
-12.74608463884993 -13.737893614922005 17.264449713408652
-12.687185678062672 -13.734675859405243 17.305252375944605
-12.62661501197195 -13.730382307177491 17.34400484272738
-12.565621773007088 -13.724365254260034 17.382450458685476
-12.49827047938513 -13.714276914298377 17.423416772322632
-12.40928849610722 -13.699302829644743 17.47280008596161
-12.33312259082885 -13.681931199043776 17.513908414747924
-12.270118645450207 -13.663547452259113 17.547440199244516
-12.226494690733448 -13.650115084848943 17.568927717512672
-12.182273779281923 -13.636124623994533 17.589743270910084
-12.122344019818309 -13.615619312482327 17.61617011863604
-12.047152425878236 -13.587741783090706 17.646393480619206
-12.000793780556588 -13.569905752713863 17.663407919690002
-11.95356324252108 -13.551237704474485 17.68014891080479
-11.896165400007792 -13.527108087968251 17.69852947123188
-11.851202595815078 -13.505583488036361 17.713122517034112
-11.80521349105111 -13.483369094544225 17.727602457087563
-11.758287709085671 -13.46027285907438 17.74140874462135
-11.710190535039787 -13.434986451034407 17.75565828244788
-11.630370561712056 -13.394780106063646 17.776855987465435
-11.577266671972628 -13.367023135252758 17.790409287319825
-11.526007572326476 -13.339778601886536 17.802984938699115
-11.473671827318022 -13.311612176147822 17.81511348633797
-11.42131122383631 -13.280983818069515 17.828047022503608
-11.370033074666413 -13.24549819855905 17.84307473340927
-11.308243066507124 -13.200404773415794 17.861630798151936
-11.26499288659783 -13.172860495384928 17.872003433786702
-11.209221177356705 -13.140711877942579 17.882637589560957
-11.152955093418777 -13.108174535334296 17.893081111939253
-11.106671027479585 -13.0833546356868 17.89970724985048
-11.0345085509684 -13.051099001317475 17.905878637920317
-10.973681154443172 -13.02411546215407 17.910656260806704
-10.902077609692077 -12.990910823329173 17.916356236494657
-10.854277525840851 -12.959088957854053 17.924970813434054
-10.796647845927003 -12.919969817461453 17.9347268695912
-10.737960913598647 -12.88105624069265 17.94373566513992
-10.678346364637815 -12.843413588317828 17.950752121428394
-10.618494104338152 -12.80678216641044 17.957174737089723
-10.55737475036658 -12.769342615670059 17.96356582599874
-10.49659556099226 -12.731368117114613 17.969259465757307
-10.399507869137855 -12.666553620558386 17.9793204113556
-10.357078725584069 -12.632209755713657 17.985892843980487
-10.29320424077565 -12.579355984488227 17.99421993655017
-10.217343610875469 -12.521849379132796 18.004115508088095
-10.185173383378748 -12.499795996810766 18.00631866390919
-10.110550416677548 -12.448103189994317 18.01184498365033
-10.054326922352846 -12.407908250756511 18.015637871705902
-10.009054734944561 -12.375547289909719 18.01756463444244
-9.968355607900572 -12.346542183305147 18.019458367396513
-9.927707301368239 -12.317331194368016 18.020894913292594
-9.882914808371948 -12.285269700079347 18.022410852070404
-9.804979641163618 -12.23167229978035 18.02336242733404
-9.764190435718945 -12.202656971580122 18.02381630106357
-9.72374050898707 -12.173012305919382 18.02345084400345
-9.68105505867018 -12.142447682586678 18.024202023363127
-9.632198371715548 -12.106768358359774 18.023961863050285
-9.560096011827993 -12.053728205237677 18.022997684893816
-9.500583901040352 -12.009482681314523 18.021462474976143
-9.44084132978652 -11.965383633074376 18.01969330064335
-9.39993799046538 -11.93443841193258 18.017552804809895
-9.359946309092939 -11.90336171721294 18.015768816454127
-9.320309858960135 -11.872670168827458 18.014242676125274
-9.266728014303478 -11.830517829484982 18.011385679372466
-9.204513939863237 -11.781096606780174 18.007496423143998
-9.142780776222478 -11.732357812766015 18.00258436783445
-9.083573975856917 -11.687094905536625 17.996457121835675
-9.024231218146811 -11.64350433135407 17.988825334554672
-8.977184764768419 -11.611433827230792 17.98210930976471
-8.90169261205687 -11.578365972776105 17.96033421093929
-8.824258134945334 -11.544674292455163 17.937513182036806
-8.739098166476758 -11.50028804297899 17.913887458885192
-8.679605135979807 -11.468701716267416 17.895939870838305
-8.617257017854591 -11.435958412478541 17.87739158415983
-8.551162470313725 -11.423044644063392 17.84672612565039
-8.489080762852712 -11.413189608519861 17.81648817613024
-8.42760140591514 -11.403681314862379 17.785608373177904
-8.367543331498267 -11.393863239334838 17.754592633299122
-8.295990829810044 -11.376309039913266 17.7181448523741
-8.24953146650643 -11.3641251497991 17.694312798284482
-8.18349162006925 -11.365407951795714 17.651681904838597
-8.106673066671144 -11.366935122783644 17.60048954067717
-8.032480883752926 -11.38697022261721 17.54286403904043
-7.950370441903807 -11.40360550032808 17.479437678564064
-7.865066538461056 -11.415211068204663 17.41343608082708
-7.809080403609682 -11.42138937857937 17.369505204045545
-7.75843387819469 -11.427800536735578 17.32868740731435
-7.692892622583454 -11.432744016250044 17.276114916750267
-7.652104799678103 -11.432499967122308 17.243944259744314
-7.592553723027718 -11.434905537782482 17.195504001681922
-7.531770499937609 -11.45455739951122 17.139543598407663
-7.46484189294241 -11.474054797204705 17.078034128406646
-7.410187726243439 -11.477139669278923 17.030783865660887
-7.3588829951962875 -11.478674511946473 16.986340702585824
-7.283383968373673 -11.474799865001168 16.92186864420806
-7.2284483177822985 -11.483004425194697 16.87064661024725
-7.169725183075496 -11.487951752545797 16.817513791680035
-7.115223474926102 -11.493654582989777 16.766068581721168
-7.065088772904451 -11.499845364027415 16.717756104364156
-7.012750043992561 -11.507658501720115 16.666961689125184
-6.959986459827219 -11.517489029416037 16.614700326885917
-6.905015455180804 -11.530162415979142 16.559381300550776
-6.866085525760031 -11.541160759231076 16.518685611754364
-6.830896465390076 -11.551073214127591 16.482138975680517
-6.795806474892279 -11.560898005162455 16.44521486280122
-6.760445143280421 -11.572610551619851 16.4074100286489
-6.7249712411338365 -11.584995995703796 16.369791873397972
-6.690174423352751 -11.595929192701657 16.331852264032378
-6.655129102645528 -11.606864037535189 16.294053785894885
-6.620332121891263 -11.615767575160756 16.25676040537576
-6.5856482490609025 -11.623693640526962 16.219670122004178
-6.550858853107384 -11.63237215739407 16.18231312384163
-6.516249951299132 -11.640555661879002 16.144930449068823
-6.481751112993965 -11.648210107240539 16.107589826136635
-6.447111364368503 -11.657942133355537 16.069607436774728
-6.412671884284581 -11.667080083014351 16.031559818668512
-6.3616195443438315 -11.67515379929539 15.976025975994379
-6.310834614238637 -11.678090987924998 15.922020650603194
-6.263237070433052 -11.679377254773142 15.871385817907761
-6.193270046430699 -11.680042886474968 15.796550870392707
-6.123570914787042 -11.687951179392469 15.719381986117376
-6.07637823518308 -11.694714671375163 15.666306413111847
-6.0268592677773665 -11.700059369853097 15.610558430210304
-5.977359586056638 -11.703021820847725 15.555220381120392
-5.93153449196344 -11.705707129988458 15.503644554850979
-5.879288825277854 -11.708849065953952 15.44532767866757
-5.830636619464318 -11.711875151819715 15.388693490855292
-5.7832585238795335 -11.714881424183668 15.334087419926025
-5.735968851932613 -11.71774735194282 15.279440243475072
-5.688919237288932 -11.720379634817146 15.224222184905766
-5.641711337238453 -11.723259108865959 15.169379659507005
-5.595297859825283 -11.727604828459118 15.114059932309281
-5.5493453196018 -11.73318656923177 15.058681234970084
-5.503733450086523 -11.739026480158845 15.003490249915195
-5.458846391328949 -11.747099670770297 14.94782333963795
-5.414148970241737 -11.755276690214966 14.892769348148548
-5.37931495276694 -11.76511197891626 14.847570216693711
-5.327422675440163 -11.77929621624888 14.78079527854971
-5.28499797964659 -11.789833667704915 14.725679207560518
-5.230390388635875 -11.803080158919833 14.655278442885859
-5.183339023204677 -11.81207997329831 14.594232775667503
-5.142737762473276 -11.81983923092543 14.54150895278346
-5.103332974755064 -11.827654602106772 14.4883507787531
-5.063938634509519 -11.837527113131612 14.437021531075958
-5.025792828562878 -11.847607115317164 14.385523644643929
-4.988100592868687 -11.85754964557045 14.334440816945321
-4.948723808281002 -11.865727565181603 14.280766059683767
-4.899004288137256 -11.866892615621158 14.215301141016523
-4.864027876019154 -11.864924525513 14.168574298468537
-4.828980376217553 -11.861285326262646 14.123196875895779
-4.79874630210576 -11.856952256942652 14.083492638333762
-4.765708666116801 -11.85402489517616 14.03912350430082
-4.733347216338306 -11.851129110261859 13.99545856619002
-4.701621639002459 -11.84771571081674 13.952862305212053
-4.6714838867307975 -11.843723678664485 13.910736648810081
-4.627709451341591 -11.837907521472074 13.849426848093643
-4.5721900757300205 -11.830136263216286 13.771343521399409
-4.517027020247326 -11.81057107257601 13.693863701523632
-4.48844610080463 -11.800420808484985 13.652317785100564
-4.446515695485541 -11.784242594586496 13.590036647497119
-4.415119844357452 -11.76632016340993 13.543409586430254
-4.380721516041284 -11.744371581579252 13.490179200318337
-4.346812922127469 -11.72082767892794 13.437981364715474
-4.321235307036488 -11.702979426827524 13.396364236957478
-4.285660275967812 -11.686588590608075 13.333212651863006
-4.248832122012898 -11.670603918208586 13.263410091089888
-4.212183635709216 -11.655076315479729 13.190421438219978
-4.185161647396355 -11.649177549484403 13.129093428389028
-4.151433071126721 -11.643891138047096 13.047737315355763
-4.127271377807509 -11.641396767502808 12.980772637133533
-4.110492562203541 -11.639041582302491 12.93275967876898
-4.090593530261548 -11.641742692222294 12.866450011709329
-4.071688917327759 -11.654685915410138 12.790079854443245
-4.057922267881275 -11.665851673031511 12.722474282355648
-4.0470396206246555 -11.681756889792638 12.655091050580356
-4.039229259861678 -11.698872611402129 12.589088548590746
-4.03309319546769 -11.715221166221363 12.524041539833327
-4.0305337261756335 -11.734809832245318 12.460578662315186
-4.030629090933795 -11.75771330568247 12.397859761622346
-4.032446215313792 -11.779463679293993 12.336259090700345
-4.036108299661458 -11.801287599691634 12.275408191100706
-4.041174431526436 -11.82012427379213 12.214869243898757
-4.047772613123611 -11.839723866098863 12.155159023447307
-4.057404753306027 -11.8632671848436 12.098639207229333
-4.0763696102657905 -11.913980396436493 12.02176498087518
-4.098154581794664 -11.964380170489989 11.946401899271077
-4.113837239870775 -11.994540866683085 11.891896540406165
-4.129828308736324 -12.024419047892756 11.836560927772116
-4.1533457473940265 -12.066163891053645 11.758568930172487
-4.170626785828762 -12.091997810111945 11.700642467452635
-4.187949978879668 -12.11840202878659 11.640425772307292
-4.204794983734354 -12.144147120258165 11.582313211657578
-4.221413914115427 -12.16914528237233 11.523442264492953
-4.238402642954954 -12.19338909403033 11.448378624344059
-4.249846137751412 -12.205909688632161 11.393656574514107
-4.266872088011168 -12.22378508211299 11.315894088678956
-4.28081905481119 -12.236487501819479 11.256125493157043
-4.297049793899877 -12.250705358527618 11.187998013897769
-4.311773236572668 -12.2636953153281 11.137034642971221
-4.329614033015416 -12.278888218099599 11.077531216755773
-4.346707998308528 -12.29439066013391 11.016841414618519
-4.37536913399914 -12.320711905641108 10.950065275288242
-4.393785780488191 -12.336361883209964 10.90399689476145
-4.416440628285374 -12.35404634791169 10.845579762918987
-4.440021419995576 -12.371258059555046 10.787083943781887
-4.464518029628049 -12.387900388627433 10.728428373171349
-4.489303391017044 -12.403460759514118 10.669358154021314
-4.515152318076403 -12.418700919557182 10.610278702968891
-4.541704937571227 -12.434188053927151 10.551246606186982
-4.569239867910927 -12.449229507946283 10.492169238746396
-4.597460329420423 -12.463966820488091 10.433045080729473
-4.627066421534186 -12.479507158253195 10.374363106064473
-4.65733826421925 -12.494819430954092 10.315673691280484
-4.688407997419901 -12.509310890034804 10.25686804043189
-4.7309364361197765 -12.52876219077221 10.178598628447237
-4.776874813596718 -12.546805452237535 10.09768867601106
-4.806588937267435 -12.554958790938283 10.038796529761337
-4.837461911434646 -12.56285214735118 9.97812256570771
-4.871226989076197 -12.57295162857968 9.918353209856962
-4.90679904763226 -12.585168208392968 9.859665436087983
-4.944495344804917 -12.599577512777415 9.802354343578864
-4.9838613508814795 -12.612907146290183 9.745601373122513
-5.022939522496348 -12.627157514559133 9.688610325376104
-5.084008035774225 -12.64713019807914 9.59971450697469
-5.109980870528505 -12.65297595336595 9.560735174359799
-5.140501127229037 -12.65984514588122 9.514932301696131
-5.179887438619579 -12.66849692150752 9.45716423797122
-5.220536146312588 -12.676553809664155 9.39998853583132
-5.267281884316315 -12.685357852539088 9.335527462744164
-5.324983227604854 -12.699989014048104 9.263010902472494
-5.37338157344271 -12.712562987456463 9.204912034830382
-5.424032402305828 -12.723898069147204 9.145503394801121
-5.465718634134117 -12.7323936722072 9.097244595186218
-5.514401433488251 -12.74321808962804 9.044796344423096
-5.555041462590484 -12.751272601218812 9.001889238739539
-5.600766756974151 -12.7598423585032 8.953297312655657
-5.646949345470437 -12.768498080416876 8.904217703475062
-5.694557854915544 -12.77704876801699 8.855277085091736
-5.755664773584716 -12.788166742328798 8.794808123768522
-5.823400720616791 -12.793554446207505 8.72210766175438
-5.871902197205783 -12.797076896618492 8.670961199930938
-5.920614563312956 -12.80057150005896 8.62071537322399
-5.97117881711015 -12.803728709832722 8.56882296013985
-6.018950672208701 -12.80269003498417 8.517065239020516
-6.079339987445293 -12.791350005768322 8.442414488838457
-6.117767294271939 -12.787454394916663 8.399193685781366
-6.167149760804607 -12.784352619209464 8.346227548431777
-6.216690815448924 -12.781060019504599 8.293299047917051
-6.263248411792487 -12.777569028289308 8.244158580154577
-6.316720663846736 -12.773442728147545 8.188320272125528
-6.369121053562241 -12.772575508750748 8.13765081626049
-6.420801147206227 -12.77203975171509 8.087604089028378
-6.462733962856223 -12.770434833691002 8.045781137774355
-6.521198243969913 -12.758882776344091 7.982529316771808
-6.556768239569713 -12.754639478298765 7.9465158996166325
-6.648392688822824 -12.761518937502654 7.870280844871565
-6.713825249388858 -12.759969312795633 7.809613971496448
-6.765467170237644 -12.758096898256994 7.76266950637371
-6.816458167563598 -12.756363787974761 7.71630768586402
-6.8836385680439065 -12.750808708249867 7.654737264740016
-6.939978887495148 -12.740948631902178 7.598370458970899
-6.998037727429942 -12.730587455959245 7.54079825790134
-7.043144982445149 -12.729476653560752 7.502079931479211
-7.092819137809419 -12.729002124066103 7.460770359271252
-7.1646157284179655 -12.726020849568748 7.4000419251784555
-7.226376220191682 -12.716164459145732 7.342799493727983
-7.278202928943664 -12.712843931872822 7.298761235322651
-7.323398385059239 -12.710894860996255 7.261576849983969
-7.374203931152287 -12.705384736017699 7.217840755824198
-7.413229772538585 -12.700169870915389 7.183533864053887
-7.474143686164325 -12.700687137299475 7.138041215190059
-7.5404058792591435 -12.692837312132784 7.081547897406038
-7.580454509717578 -12.688097294573126 7.048108632761645
-7.620818707961186 -12.685702337182047 7.016429749025343
-7.680118837329806 -12.68192971054195 6.97018083694976
-7.738185547437618 -12.678093380387253 6.9252125602492836
-7.799265409198091 -12.67522808526584 6.87962457120686
-7.841390786044768 -12.671570808716815 6.847786123509372
-7.910134596715615 -12.66678626777532 6.797526844514245
-8.00427287368785 -12.664908950651448 6.733133898771915
-8.075007295610515 -12.656235486859401 6.684528906815461
-8.127224507301596 -12.651118474438334 6.649558634188972
-8.18005509827325 -12.646279871665193 6.616042537255496
-8.234006595582832 -12.645005458697804 6.585064300156797
-8.284837522813019 -12.645534628392703 6.557417896328077
-8.344810881272972 -12.639936003931902 6.525086814775845
-8.424444767410113 -12.629397557174016 6.484745524202043
-8.512753062612486 -12.615659560531391 6.442991936954728
-8.57005624579176 -12.608431555088844 6.419609792864983
-8.629062542596552 -12.601231382681956 6.397623786199162
-8.67800184214016 -12.59609872143934 6.380942351387262
-8.754566213534966 -12.601364144638662 6.359399246523599
-8.833971947999416 -12.607141893460915 6.339344642361378
-8.897233961842005 -12.605821600653695 6.324473759323175
-8.98591408124721 -12.591628957738457 6.306817461367616
-9.063532071330009 -12.60700465557544 6.295304081233902
-9.127709445998166 -12.618603354687012 6.289286903024183
-9.181900320655188 -12.627628771578838 6.281667092235108
-9.238390346252078 -12.63574094914889 6.276861115913519
-9.313563564667893 -12.64897203851433 6.272349569727951
-9.392359653203464 -12.664228158553037 6.268770624814296
-9.46427019351867 -12.664498685046183 6.267809929448003
-9.520003002817035 -12.665020490655358 6.267948629281706
-9.595468399182709 -12.686186677545276 6.268128893303248
-9.663374086877955 -12.704367253854368 6.2695444786310786
-9.759887512414759 -12.728525590387694 6.272548928532254
-9.824037274716549 -12.73169776865407 6.276213460240903
-9.889144886998057 -12.738731402302124 6.2803403872492165
-9.963331520007925 -12.747128322872872 6.286066492520801
-10.034285517682136 -12.756420928585403 6.292038873767844
-10.10655014164657 -12.771093487472882 6.298248344763641
-10.18564728349714 -12.787018704576237 6.30604099065598
-10.273227004695517 -12.809540852649151 6.314374280646028
-10.351825036345103 -12.831622887042176 6.322535887953109
-10.401219323105188 -12.8444311866891 6.32794011903964
-10.477495470835823 -12.869393609401724 6.335340950629544
-10.554145608977436 -12.907367457732779 6.342027336736915
-10.606643147345228 -12.933784632355767 6.344808623554552
-10.656962561024047 -12.954471504308586 6.351379632549967
-10.72449059148678 -12.982639184715564 6.358447529854756
-10.80852079238439 -13.013746958511543 6.367954097861194
-10.895345679529076 -13.030310190119401 6.380720049208992
-10.97587149218967 -13.044153329291788 6.394201529750978
-11.06125143717544 -13.055623219555084 6.409529671726233
-11.147097473972586 -13.0667692809882 6.426145411493517
-11.221553322362467 -13.07563002934739 6.441525284575338
-11.276537944159426 -13.07834241376888 6.454441360966435
-11.337726260067798 -13.0810066623412 6.46977649394287
-11.43365838405129 -13.084138265523634 6.494614870077836
-11.527764753154122 -13.086755631075487 6.5212049857661265
-11.620001172967353 -13.09876763138019 6.545286488712179
-11.698970696766805 -13.093887425856657 6.573811569579126
-11.767125611606186 -13.094911429993441 6.597199482220818
-11.818364403190229 -13.10288488498476 6.61315814584934
-11.872147423122158 -13.111528024632117 6.630809421333501
