506
11.763152732032564 -5.501792129819261 0.48508516686398195
11.700844531038571 -5.511590963238108 0.478656542577407
11.648319673409228 -5.514702505235682 0.4699195756972747
11.58931153667595 -5.518195168582029 0.45916023155367025
11.518241023528072 -5.496123707885168 0.4342135374863867
11.44286919393384 -5.4859472497762365 0.4125063578799857
11.376097297869892 -5.484299626909628 0.39592200294428537
11.291955376752288 -5.481306642541405 0.3748019372619673
11.224042100065057 -5.494918595696124 0.3659348074618558
11.166646423580042 -5.509902830909532 0.36040707883816303
11.094647715915517 -5.527528317539188 0.3535392005563587
11.034150128401992 -5.534587837740142 0.3434135400887879
10.96640308828034 -5.544664572372874 0.33464589459469085
10.859466491453214 -5.5600502694139 0.3214052652059305
10.78347578835651 -5.578512837880929 0.31748722280069863
10.71711036957545 -5.596178781599962 0.31611624827087503
10.646876660360013 -5.614734931379575 0.3163331290553
10.578495874243368 -5.6346259381195996 0.3187969809017144
10.506455501601648 -5.652824150869641 0.32185389836661304
10.440171414769043 -5.666743885595293 0.3239933080840327
10.371224438440995 -5.68385303128855 0.3303689672520509
10.302780300957936 -5.700216660292595 0.33774738035182406
10.233525764136811 -5.712857584611534 0.34522616228239045
10.164175618126817 -5.722950393774964 0.35293994077465474
10.096067244161853 -5.732533590198395 0.36280358567280757
10.02575732958024 -5.739778411528485 0.3736938331199928
9.955664823508807 -5.74159938406684 0.38341294921177216
9.88604819142122 -5.742149826349099 0.39476696377603204
9.816373087890014 -5.739900863774082 0.40745328141986725
9.745962044227872 -5.735652858894813 0.42048060606694904
9.677503433489443 -5.732167062367758 0.4386635233891125
9.609667098401717 -5.727231785612478 0.4590819135776263
9.560495011160286 -5.724181945080145 0.47671690701142566
9.501106852047316 -5.72222303451907 0.5030621861420865
9.434201649564782 -5.718305516150787 0.5352336633447692
9.381771211673895 -5.713866584032019 0.5610796856858284
9.278967100768945 -5.696835881255074 0.610146514594927
9.223443161347456 -5.686311962967441 0.6385052554591937
9.167387702409428 -5.675090827443267 0.6680611263812164
9.111348941960173 -5.663444373901475 0.699238556093424
9.05507909515972 -5.650991847257579 0.7319341848259393
9.00943254774769 -5.640651801799347 0.7590996499021907
8.94405787752922 -5.629122766708811 0.8044486549905168
8.889027190086189 -5.618445731871615 0.8433553885321903
8.8334707520628 -5.607229483217868 0.8828745974573682
8.778282843291196 -5.596075921185772 0.9238314629757385
8.723672825146238 -5.585860202414178 0.9667154904138746
8.669445237134509 -5.57614774275714 1.0108928217383477
8.615225768020668 -5.565877343311733 1.0557824622762064
8.560729305109028 -5.554473090181602 1.1007068807829912
8.505943660302414 -5.54195782929901 1.1457215303038994
8.450847639330146 -5.528851356304454 1.1907158347963467
8.396869244570514 -5.517304625485139 1.2375578459847238
8.343689989922146 -5.507053640874192 1.2856298244464774
8.29159999845216 -5.498363175063405 1.3351554207021117
8.23882032963747 -5.489601929089851 1.3849684862656808
8.187831044440205 -5.480751950124208 1.4344433313118028
8.137207436067238 -5.473726252234206 1.485188998387148
8.088320328667864 -5.469309256849876 1.537452278839818
8.039910447378949 -5.464615814682471 1.5897268917440766
7.989532344746617 -5.45653088582741 1.6390166554233243
7.939129077887591 -5.447976774824486 1.6884700303375269
7.8895770798465445 -5.439501107115312 1.7368380476167307
7.8406058097076965 -5.431391055288817 1.785451750589413
7.791876762760891 -5.423317263755036 1.833375033056841
7.7429828439220945 -5.41470956675899 1.8802681405759198
7.687815355108857 -5.40462208752481 1.932299707225683
7.6468833479343115 -5.398615488267447 1.972416316092776
7.601702603836472 -5.394743940949571 2.0190413957019135
7.546657651746353 -5.392351323760634 2.0775752879446348
7.4706030859249815 -5.388965583959283 2.1557953007686717
7.421205705057613 -5.389991210082421 2.208952221566557
7.372339849058102 -5.391924301482945 2.2617522855280487
7.323234589510913 -5.394432134192616 2.31468714864428
7.27364590593546 -5.3974736479656045 2.3675498987031034
7.224442045985353 -5.400212388375099 2.4197184443950537
7.174957409789428 -5.403462113580666 2.4719288288932297
7.1255618833055525 -5.40644779907905 2.523472943269125
7.074671462235745 -5.407459484080995 2.5745820639169725
7.023852062501549 -5.408140013805035 2.624917335069581
6.973349240173475 -5.409027841080414 2.674702437344539
6.922470748247573 -5.409724086965161 2.724475526949499
6.872052149885869 -5.408650825654252 2.774678588184491
6.821687701010295 -5.407955571748779 2.82401983935525
6.771472084343854 -5.406816142999078 2.8732934830279238
6.722064943569539 -5.405188001430259 2.9218782613471372
6.672231485555173 -5.402915055720994 2.9709197714280364
6.623344345993022 -5.400431995885606 3.0196391626489874
6.575340432999068 -5.397254117020861 3.0683283346216417
6.527262132343633 -5.393157647712668 3.116462688640924
6.4786003133841685 -5.387241482119132 3.16423932365519
6.431168978337258 -5.380528528164895 3.2118751789037994
6.378379636165134 -5.372356133209589 3.2659450372288052
6.334149770851514 -5.36561839590002 3.3129877736435933
6.290189485550096 -5.358380118939603 3.361364111473314
6.247369847869886 -5.350925268556404 3.4100136756115287
6.205935549993553 -5.343326736480709 3.4589728293270827
6.166091629045968 -5.336329318756839 3.5085198493837666
6.127756526299015 -5.328243617227946 3.558323574052759
6.090437702664595 -5.319223243985396 3.6082030552747835
6.054590848577056 -5.31068855157087 3.65844203043865
6.020926815312146 -5.301704681182397 3.709471139236486
5.988116601032452 -5.29146787423667 3.7603094526599428
5.956594239464003 -5.279534567127229 3.8112367172902726
5.926556915881164 -5.266759649905309 3.862375575696726
5.898069749869026 -5.254755727118944 3.916679223100058
5.871263555110419 -5.241939284032705 3.9745354145633076
5.845529244457431 -5.228572554743129 4.03281604548436
5.822298176500517 -5.213969440552901 4.091610328985745
5.799365010282276 -5.197632605393766 4.152148780625447
5.778623693922001 -5.1798291889020955 4.211648176898558
5.759296645668025 -5.161403174439302 4.272709568081968
5.743077422373171 -5.1428062750485 4.330513217314564
5.718761228795412 -5.111059625626984 4.4226796385633005
5.70637975804598 -5.092713955658699 4.487499565087981
5.691631654141425 -5.067061407939898 4.570771806056271
5.683074127457873 -5.048599530347664 4.631488464837043
5.678996097433135 -5.036937127814516 4.706895805692209
5.678113673825424 -5.028906317323944 4.776661495446479
5.6785581884123175 -5.022493625437075 4.8470169321860705
5.681276690934615 -5.017318979868536 4.9182210009026335
5.685502897416697 -5.0132072327761925 4.990323531073196
5.691158682125296 -5.007627800237346 5.066205743896276
5.702519533212634 -5.018617119334804 5.134516411097591
5.717307434325722 -5.031944064073883 5.22131717370957
5.7266735352270235 -5.0305470522356615 5.2891972241567835
5.740550852496417 -5.041482323429246 5.35844484412323
5.752972433712413 -5.0462189494345235 5.42470023171456
5.7653781851885135 -5.051424557977976 5.491019613732467
5.784928422090187 -5.0685351751614895 5.569687215726084
5.802537605156272 -5.085896474657567 5.634851449942792
5.826664279114647 -5.114567631633424 5.7106182457679875
5.845769173276242 -5.131003098081299 5.7816272706434475
5.864812361243795 -5.145444219116095 5.854175525026175
5.878909059870165 -5.159464845843651 5.901199509063876
5.894411382076472 -5.178110396560964 5.947002705455191
5.912977200069456 -5.201280123989751 6.0002206124504
5.945696334055249 -5.248329179835121 6.083042984985157
5.971988946503563 -5.2767506841037815 6.1605568374986
5.990507618483478 -5.296645156356805 6.2140880074399
6.010641769203404 -5.318645452466432 6.267571646672456
6.036667898525833 -5.346536763003099 6.337722678771044
6.078197727491412 -5.388445877600855 6.449069967333173
6.102738083812673 -5.416418442505831 6.503768002210858
6.127009240018767 -5.444793248695705 6.5582816373571795
6.1477551289840715 -5.465283823329036 6.606132346764337
6.1779235293884955 -5.493989318333359 6.678951251657313
6.207171057581471 -5.520440152525401 6.747988212706947
6.227962021893461 -5.539473817969746 6.793905826200325
6.254280554625701 -5.56317423683095 6.85166229953219
6.281276217907472 -5.588269757608369 6.9091517801725
6.3061967156697065 -5.611708747832946 6.958531068680555
6.342005232085233 -5.648452298644397 7.021565168951769
6.3752282388345645 -5.682913929935012 7.076574433311656
6.409493627618593 -5.718397483735865 7.131487773251813
6.443335821056726 -5.750169124127114 7.1876419631931245
6.475251662904469 -5.775226989474465 7.246077872731405
6.502083891327233 -5.793955790590493 7.297819700101126
6.53490370772346 -5.810116872487647 7.367801018223474
6.562882994453332 -5.820865946100971 7.430666607844113
6.588734872931793 -5.823947045711574 7.497392439650241
6.613679165765836 -5.824600769125654 7.5642390355906794
6.638534676683104 -5.82358038007712 7.631581289336381
6.663347017968633 -5.821369027131258 7.699438273173424
6.687300395480278 -5.81520594874371 7.768685631765267
6.710614504629021 -5.805391108076551 7.838846013109155
6.732374247305502 -5.792371237645639 7.909151492766936
6.746342695972921 -5.782056589799888 7.957127393200876
6.760457471996172 -5.771296503953975 8.005106984674502
6.77981809741272 -5.756436590077961 8.069642660878987
6.803955089641768 -5.738145268834115 8.148797660068594
6.819632676250697 -5.728349845564496 8.196012111463707
6.848570374664194 -5.710738424332424 8.282224104887668
6.8698965781961085 -5.702806345160761 8.335805224469745
6.904519923059434 -5.693036323654129 8.416879028590634
6.929837879694794 -5.689952094365662 8.469471549343957
6.958804591032694 -5.688590042061792 8.525775585466127
7.000277040167269 -5.690592642157997 8.596531951521293
7.032114306475544 -5.691959971828178 8.650292852506434
7.081655725255867 -5.69867256559967 8.723412771675228
7.136392485583693 -5.710723034779759 8.795312049972999
7.186146039755354 -5.721289920070525 8.857173690061098
7.245512445496416 -5.742566115479725 8.922162430660018
7.29096148066278 -5.757415873577759 8.969784556776709
7.335918897786163 -5.773022482461371 9.015799429709876
7.394453534267598 -5.792229940876277 9.075450711427813
7.46291422107271 -5.8112520408300625 9.147512832900679
7.509969471472508 -5.822706216280611 9.196919483295927
7.556878436439114 -5.8333640184246285 9.246782103047918
7.603794355020017 -5.843014463107737 9.296956318222406
7.648258237340354 -5.844163539229754 9.350301598830178
7.695511276118481 -5.843181056469158 9.408187178178636
7.7400702771786225 -5.8365969731379685 9.4667787784362
7.771331493282166 -5.8303343639686585 9.510399716777956
7.809771479243495 -5.80846851776403 9.572332252715231
7.84333725712017 -5.783357957679785 9.631021779527323
7.869758810881642 -5.769421851666618 9.672420413705542
7.896992875050369 -5.756560022050831 9.71336947991177
7.922313057215016 -5.7357798893838545 9.757389015702135
7.956638690497661 -5.7077906699913115 9.816396026329276
7.99579293903636 -5.6979146528778735 9.868298368520438
8.024880041605478 -5.6868166692336715 9.908354436848175
8.0603734122384 -5.6689878825415825 9.96079821092479
8.10632602647878 -5.628747629866361 10.039291438552734
8.142378874876474 -5.599329836061004 10.099152994601244
8.173470033975757 -5.572320615982115 10.15163018358929
8.232638046557312 -5.560223424068065 10.220999491534037
8.287294276448126 -5.554678621226628 10.282054939770742
8.348892334675043 -5.547948822503644 10.350168228332073
8.428391634323239 -5.54894159677646 10.430623027791949
8.47797935436018 -5.550461428012381 10.47994360420876
8.5269050161551 -5.549991670301523 10.529890811924353
8.571898128146698 -5.545916476043981 10.57769171962902
8.622029057897409 -5.536075538037604 10.634693756337121
8.678305556431075 -5.525596783881481 10.698220948905615
8.716874343486179 -5.524578872767286 10.736564260821684
8.764844392730112 -5.524298666381146 10.78412050579896
8.812841545219936 -5.5228562803758905 10.832853180748277
8.85855398043179 -5.520624395612101 10.87949011147856
8.918632765821066 -5.5158474084128795 10.940855326538571
8.973127498375792 -5.528466952769321 10.98702763927242
9.031031392251016 -5.544929665637595 11.033591563529455
9.081499245196017 -5.569064608777847 11.068445929383518
9.142124124650291 -5.601248644115037 11.10877066269574
9.210576768143287 -5.654259088891022 11.144647715236829
9.253416582462537 -5.681587339884164 11.171234598862025
9.301989246803563 -5.711561482293257 11.20153400232548
9.357017662129358 -5.747702287727206 11.235619985177003
9.433706324964367 -5.808184735241131 11.277680114527257
9.523823865316249 -5.866042411293243 11.336178992996928
9.607720487586874 -5.926354387496875 11.386888846812305
9.665219167414811 -5.968976694085198 11.420245997659258
9.710472913388367 -6.00020827106535 11.448057374530062
9.752476735495938 -6.0291679089245385 11.473605809996979
9.82201794969214 -6.0828166796495875 11.512261975513258
9.896399264002547 -6.1410266794723825 11.552362801302241
9.949552865803929 -6.185844289385672 11.578375512048545
10.002733379076119 -6.228117994616296 11.605106904219031
10.050402002267413 -6.266855737101908 11.628652329542476
10.100551052195826 -6.3180432801712865 11.648205709980495
10.158321289267489 -6.368821001442887 11.673447764093773
10.195487688332014 -6.399765835099595 11.688828329170367
10.246496519716793 -6.437649348068611 11.712246459846341
10.300027396936875 -6.475852878261948 11.73570266076787
10.354343998599914 -6.510174309033232 11.759383169673558
10.414878790313347 -6.54905077448778 11.785084238313146
10.457183737491796 -6.593254590882994 11.795758179619451
10.52586906463844 -6.659087158733319 11.81535850084363
10.584395467457501 -6.721687988432176 11.828682258116146
10.670807643483911 -6.782917732132907 11.854049176333458
10.73079157150738 -6.834736011515005 11.86765703595183
10.777983191732917 -6.867787512802693 11.878690362806523
10.830192029800534 -6.900384495979896 11.891763432644154
10.881307774172834 -6.932550213726401 11.903155261674847
10.931060303101757 -6.966164510482107 11.912257507722327
10.980443838897733 -6.997360687933515 11.918520264993962
11.03350940441443 -7.019212943797969 11.931673630469984
11.090780104139558 -7.043623615854672 11.941862616299758
11.176906257370522 -7.082317661932709 11.953142874994512
11.231498452770543 -7.12290786431627 11.954543195088775
11.281244751451759 -7.164889215056716 11.951255005022912
11.355101265071408 -7.233178414641303 11.939904088653094
11.423824679003738 -7.308173634228268 11.917186532817695
11.475873210147467 -7.328690088567296 11.910381600211128
11.541321224377947 -7.348833591963052 11.899736795944541
11.618083604080809 -7.366730769015399 11.885953982410122
11.669916275917574 -7.368488611197307 11.878539070106306
11.751870331258493 -7.363738111187615 11.867351802848987
11.823358646568892 -7.356945227440415 11.855035011477366
11.894556930402498 -7.348907669349487 11.84155734109051
11.964901554115832 -7.3391095619067475 11.82514893006132
12.031703887980958 -7.3298140407197145 11.80781623590132
12.110769345054766 -7.311934884287192 11.788531795400594
12.168946109870316 -7.301613789814873 11.770879965579795
12.23280701724296 -7.294898212968352 11.746219057505154
12.29398745235224 -7.293215157339649 11.718175373459513
12.354428876167509 -7.291556853481177 11.688676672837786
12.415452308196897 -7.287644234574557 11.659626567697142
12.472626947834286 -7.292022372515138 11.625391912915209
12.529386026490563 -7.297057737337866 11.590448415439504
12.587585816919427 -7.298473180291733 11.557257974225966
12.637040671863971 -7.297391525298497 11.53168304692522
12.714999280143635 -7.3067348371461005 11.482513103077896
12.760906303392344 -7.310687219225404 11.456262092380879
12.808253234695632 -7.313249264696584 11.429327054898334
12.899599462528014 -7.328517533488057 11.369176860587373
12.943438896284928 -7.331909552867046 11.341413166640141
12.993587531987037 -7.33656884521079 11.308365331847
13.070667988911042 -7.342534645996121 11.254837538289902
13.129498763610187 -7.3487345669439765 11.210032531789874
13.18215855983833 -7.351397065328468 11.17058368448497
13.228745953339919 -7.3533351412794445 11.135118566710979
13.274380775895574 -7.3546696481843945 11.099061898390982
13.320075510234878 -7.356623281451272 11.061301785295143
13.365796918527293 -7.35820189213741 11.02285710855709
13.412150834805804 -7.359241875202029 10.983249912061407
13.49034854675443 -7.3597926415224695 10.914540304147117
13.555809445503968 -7.357911994511337 10.857626171962114
13.60128735587753 -7.353609582058075 10.81937420863332
13.659505816963135 -7.347720480928434 10.770814056504257
13.713997821905954 -7.342128474198297 10.725363706962824
13.770032898084478 -7.335878669690638 10.67841534186513
13.830939136115019 -7.323624370113711 10.631726530840364
13.891903483953508 -7.311518604961666 10.584714840455256
13.934427521722553 -7.303191656640866 10.551770878686778
13.978147119685826 -7.294786935275887 10.517763305407954
14.022590501905947 -7.2872167780528905 10.482374387656819
14.068185004220352 -7.279702442702986 10.445685782286922
14.139075002236881 -7.26582005461592 10.39149143551558
14.214077270680265 -7.251340727385195 10.334241896964606
14.313169582166305 -7.237484652107742 10.254298486877477
14.388132499715445 -7.228426373013271 10.193956981408945
14.459649165356318 -7.214822162473331 10.140177761318803
14.530223739267813 -7.200702391892975 10.087856024678537
14.583733096057413 -7.1899888855006395 10.04817389882568
14.637975597261264 -7.179708313315828 10.007381738673011
14.694965916451435 -7.169708921890578 9.963688298870366
14.749215308030646 -7.156636514378979 9.924910570778867
14.807432597686818 -7.140934481697515 9.884872202095064
14.860970713006774 -7.126352546058628 9.848289788557022
14.926149442227478 -7.108600778321783 9.803754645830765
14.985952656422858 -7.092641801172334 9.76221161244749
15.044194859744385 -7.079047576373629 9.71914063608748
15.097372749824734 -7.067535909592689 9.679582647629225
15.162442532404654 -7.053046771901954 9.63067721372996
15.201730201772373 -7.044209952782982 9.60103518766098
15.255853019409082 -7.031366020287997 9.559995995042843
15.332075876528632 -7.015727953490426 9.500098067404037
15.395655169425114 -7.002744473774396 9.44950507369332
15.452723429805163 -6.991271184522894 9.403610160378177
15.508503924685483 -6.981450225629651 9.356602275596597
15.563652966137827 -6.97210336439252 9.309447967547815
15.625266440849483 -6.96074027771008 9.25580850464818
15.67415107283457 -6.947873631179748 9.217406593156737
15.730359482725909 -6.9321693721361015 9.173090988814163
15.785872659595586 -6.916408352379882 9.129058435942824
15.840144317137314 -6.901347687776001 9.084770918339288
15.89283371413166 -6.88693594775183 9.040235466296798
15.945154048167115 -6.872199040768535 8.996355424481758
15.996341638881544 -6.857463627938795 8.952876606502873
16.04554697929897 -6.843955261925721 8.908962687077496
16.092239499870782 -6.83234156489651 8.864638081223108
16.137668476115877 -6.820840697369871 8.820641139442985
16.1814792692741 -6.809117951689409 8.777166398398958
16.224881377381898 -6.79629866369814 8.734711173305296
16.26888912040131 -6.782285657757141 8.691105931561049
16.322714361601967 -6.767214904106746 8.632379277236314
16.386321856065763 -6.748541843142521 8.558246402640874
16.42694627917096 -6.744641180956894 8.494164386452336
16.45429738012212 -6.742405079930508 8.448314000095365
16.48067596592928 -6.739686800481753 8.402747934314922
16.506488157375294 -6.736639633276473 8.35752066299012
16.53167929954843 -6.732557465925668 8.312778241293746
16.557419303412154 -6.7264786357238915 8.269011659231339
16.581758677467192 -6.720627217161475 8.225122737362737
16.61598189071347 -6.712388711044838 8.159618700171666
16.646645675515558 -6.706943353947073 8.093217283293635
16.674829439701504 -6.700828578758241 8.027084217664603
16.702703487411306 -6.692994847597516 7.9622429751204375
16.728577369637556 -6.685118983605758 7.897701295369519
16.751892568584083 -6.677764540685333 7.832974182928966
16.7737217921336 -6.670068625418288 7.768846969129758
16.794307243546733 -6.661493299496392 7.705226584319915
16.813435526606426 -6.652230072692618 7.641979640794538
16.830551628639004 -6.643332019375151 7.579131867682559
16.843623874104686 -6.638486189589445 7.514621543729444
16.855111158464023 -6.633221735281161 7.450748152433777
16.866194931271792 -6.6261451200236525 7.383334583789061
16.880359395520642 -6.61481517223115 7.302978414570918
16.890742971622583 -6.604081062190282 7.2359003179360375
16.906290767398005 -6.583408108128511 7.132621513700478
16.918953380668068 -6.563039261781348 7.058958049052498
16.932246336869767 -6.539149942817332 6.989937447413578
16.94399376219399 -6.517064226347069 6.940685116888812
16.95645617877704 -6.492045032976375 6.887171658837966
16.971782853815377 -6.460074350730881 6.831080934487947
16.982718536697913 -6.432880736554168 6.774124812063249
16.99244726349277 -6.406694189744448 6.724407390011329
17.00401429873521 -6.371747164995538 6.672949619680443
17.015864349276384 -6.321568201522375 6.597380235856317
17.013574177516627 -6.283698853856059 6.508745628457714
17.009838302707955 -6.248723928036512 6.434221850297858
16.98172872975382 -6.235399219553688 6.330451286559452
16.96459277531205 -6.220076166996051 6.264103908833388
16.947825049952012 -6.209627656067864 6.210363013482109
16.92810260616138 -6.1968329232812955 6.150775143835112
16.901149878657066 -6.178934882328443 6.071457164148972
16.882759259344073 -6.166878261130112 6.024785227669792
16.86334274406029 -6.153257375404134 5.974325570247721
16.837437096862864 -6.133366529118865 5.909246131353266
16.812505618161826 -6.113659189127183 5.848606238076044
16.788594190430636 -6.097888781336666 5.79440520395625
16.753082811856693 -6.083808083367382 5.721276650446441
16.724762389081057 -6.078439705232844 5.666897349493022
16.673732094285135 -6.099845679140238 5.5859827996816716
16.635477538168224 -6.117315016627613 5.52754346578967
16.59448629375722 -6.126435294344098 5.459585203584668
16.564604827915176 -6.1326837873182924 5.410198427478424
16.53529543363141 -6.134414714729488 5.35984648688793
16.50499310907685 -6.136185835643511 5.307535995118162
16.477271992981564 -6.137766933860625 5.2607495791701275
16.441356377175005 -6.139265211835685 5.1981893363405955
16.416170983711112 -6.140269459813576 5.154650412593414
16.389072685495606 -6.141079899869645 5.109090079071487
16.360911246880566 -6.141115137936422 5.062280706214995
16.331897604536735 -6.1411352152410625 5.014276680252669
16.30250115093414 -6.137773524013188 4.964188949102285
16.272321540946017 -6.132964158787377 4.912879529615157
16.241155566195594 -6.128014237516979 4.860137393486307
16.20935387689059 -6.12354077805634 4.806456748066806
16.175237565754912 -6.124858439976215 4.75241551555812
16.140293749548768 -6.126119930720133 4.6975245570211115
16.104677202570816 -6.127997809552042 4.641506928233014
16.068225178798258 -6.130046442034679 4.584514948536198
16.02971877593078 -6.141416982326312 4.528709542895845
15.989502646140972 -6.153223276798165 4.4710995685448065
15.953521645914842 -6.162815439249279 4.418723032610359
15.89708969039117 -6.1683001982092165 4.334356757800553
15.843377249165671 -6.1708273611557605 4.254003021006369
15.803432565588764 -6.172697191116331 4.192741602974136
15.766584120669926 -6.1749892848107795 4.13816150909269
15.720673506663443 -6.178832873664064 4.070108876075144
15.678889658316455 -6.180467074328863 4.008233140747201
15.637342099281328 -6.181873043327059 3.9458549890612584
15.608570256453753 -6.182337388738425 3.904495512630545
15.580333591075513 -6.182303698968825 3.863190048816902
15.538005218214995 -6.184537676377241 3.8020823652359095
15.494016387980597 -6.1868571119999665 3.738731176235774
15.454361944196625 -6.190954908191959 3.6826216050745284
15.40504818345653 -6.2092627420557704 3.617551194594144
15.37462936731566 -6.220625766825343 3.577713255260175
15.344254715454262 -6.231973284420846 3.5379348500975727
15.318625941332725 -6.2459236214801255 3.506173066986669
15.281664919184307 -6.2660401546140925 3.4603676914033095
15.250151376397307 -6.284791834611827 3.4220715974349822
15.218647647260156 -6.303728066089816 3.383289052138352
15.174728023147571 -6.311186413992463 3.3246363581499985
15.127361088097144 -6.317686013326163 3.260530782667354
15.096626264960467 -6.32369709247547 3.2200096190166168
15.045211536865704 -6.324627309984354 3.148995975161018
15.004045685986325 -6.322938667035176 3.0919397433101334
14.964353194590666 -6.305590745387697 3.032023268506734
14.923812134307518 -6.283428039915918 2.970422126335789
14.889242416265644 -6.243903794187057 2.9111795845759794
14.851107361071753 -6.211654074365031 2.8516504747940186
14.819969030022724 -6.236768010908865 2.817137594435197
14.781503527148304 -6.267487052654035 2.776095158255375
14.740174799698506 -6.304027291457379 2.7337008273678816
14.697050267245103 -6.337714674198185 2.688409663836458
14.643900392820639 -6.354862303401912 2.6255919705355044
14.601518293033989 -6.365363638400831 2.575261678181601
14.549414500299017 -6.378179229531096 2.5143565710268962
14.487663041479136 -6.385223126505993 2.4408892497424617
14.405782269113836 -6.377699523231893 2.3420405412101886
14.358535098098171 -6.385863946522736 2.2894279877611243
14.309345911931665 -6.394744927798465 2.2359465194548935
14.244374319293394 -6.425218992159394 2.1713770512082906
14.20697581801455 -6.436640338475867 2.133341519137085
14.149288258124624 -6.451140899968692 2.0737566329957424
14.09384043101793 -6.481453817905971 2.0229808945352925
14.029218541783973 -6.498942719152625 1.960620429101036
13.991661305193725 -6.509832361861415 1.924029152773283
13.930838341968363 -6.523963374993754 1.8651145319070555
13.878038720446277 -6.530844565893631 1.8143171998502527
13.819855816373462 -6.534039734532778 1.7581994630317617
13.77560582643615 -6.531134923973717 1.7151140814293093
13.715562228942698 -6.527106181268982 1.6579567118236564
13.675024888726215 -6.526008493940742 1.6203706829073568
13.622062323537671 -6.522282317095511 1.5707157295044425
13.578070328877077 -6.506500578616684 1.5286781681035775
13.531705076343107 -6.485395145943368 1.4844756962334946
13.490064005010067 -6.4478086725948085 1.4433198539034224
13.449144625078969 -6.4071135679331785 1.403261884560858
13.415959723325416 -6.372280128813847 1.3712830043025868
13.37026265036408 -6.315974211223198 1.3278752007435664
13.33166998307594 -6.26934367360955 1.2919833329818085
13.29974011635411 -6.205977046947542 1.26130242983694
13.268049531576546 -6.126089190406681 1.2316372914035618
13.24850366871072 -6.073677611015615 1.2137358027727467
13.228968172647173 -6.021900440508116 1.1967211043712922
13.198128644195126 -5.946822664414356 1.1709603219286544
13.151610646786596 -5.8797789622223675 1.1355018928782012
13.116300939023937 -5.832166494583335 1.1091195534945157
13.085302815331072 -5.796467865999496 1.0872259264439403
13.02264185097595 -5.74862744077609 1.0427464638999808
12.986434681522322 -5.724540338537379 1.0162627463030693
12.932033975093683 -5.690306583613445 0.9790370467984619
12.880105234631547 -5.641584137865623 0.9406406313216422
12.822794248732878 -5.60117767480121 0.9001047211036717
12.780327491948187 -5.57470282933618 0.8706124168365328
12.736997029429961 -5.543883152530782 0.8404009326237833
12.696503074902273 -5.516641241597426 0.8127616754888489
12.657988379970723 -5.489704074602873 0.7892288565327767
12.60385495057665 -5.453334685083181 0.7505973277952354
12.525431811673473 -5.408427534128897 0.7001707455168731
12.439047358911456 -5.371753568856105 0.6502335186907118
12.379210372922403 -5.360932154181462 0.6200102071013118
12.326473775825596 -5.352549510801133 0.594837033961853
12.25496312343648 -5.337494368330848 0.5614128137790022
12.190269332362723 -5.357072019362176 0.5430464780409263
12.131101194620081 -5.371195838510637 0.5266773303915402
12.054647819348995 -5.4066299062822285 0.5149685431998456
12.007788847643013 -5.425811584406469 0.5079302307390527
11.960766260154292 -5.443205600314945 0.5021815722461636
11.912938414677514 -5.459824822689624 0.49721837549461334
11.839929549804472 -5.483577251537287 0.49223036236215645
