262
-7.403072190726551 5.999087057989978 5.00148270289183
-7.480842168387208 5.987605373799633 4.9874964404304984
-7.558692636735456 5.967772491461764 4.981344530771781
-7.608062878183025 5.9520310108934815 4.979475106645533
-7.65592168035874 5.934556864106028 4.979651269943388
-7.738089078727864 5.900108448143451 4.978666041454033
-7.790320949796975 5.877534658949056 4.97304212188076
-7.854381325966589 5.8494313669569 4.954131662747474
-7.910636266926602 5.822197266254085 4.936928870118385
-7.965752074004953 5.793764618011934 4.916775532588345
-8.049513709687043 5.7440635235462665 4.886686654700358
-8.13021812547874 5.687635903292323 4.868107959520887
-8.178645727837635 5.653111290048326 4.85213920782511
-8.221211585184985 5.622026904488536 4.838260940795091
-8.269699159948525 5.587380180018982 4.811686555411554
-8.350909211543332 5.522429648189215 4.7919183901538025
-8.415432538529974 5.47263252562183 4.770975900114812
-8.510125672204342 5.399692500063798 4.754339020218533
-8.579679449979842 5.347291290431526 4.735461844238675
-8.65038335816784 5.28829483878825 4.7212489137513165
-8.692385824287435 5.25056290619702 4.707511009812985
-8.740963131253924 5.20455622111831 4.692925684786531
-8.785302645327201 5.160543927614697 4.6695370914586105
-8.827022396746383 5.115385957801008 4.647733039482392
-8.869985738272844 5.063686701480995 4.626121833103233
-8.918558161414344 4.996993617582264 4.601569731126843
-8.969763876736861 4.916456805738685 4.572453688135879
-9.001327700560033 4.861497078547284 4.5494336126111525
-9.029489612618004 4.8081824969903675 4.523852741719623
-9.05414472133026 4.758609012540568 4.498036316517097
-9.082385690208007 4.695318455167429 4.470696264701734
-9.106162848381945 4.637661367659337 4.45057572980308
-9.128583278560644 4.574246058138977 4.4403250225837025
-9.16028251041522 4.481677154336211 4.412302474673058
-9.187917808341675 4.390728659573092 4.377869631144416
-9.213452373280283 4.294052707712249 4.335558871371599
-9.226630172371378 4.238288018558906 4.312257439620644
-9.239533697226685 4.174692105367498 4.285447334299742
-9.254045408147135 4.08904129734554 4.249032770743189
-9.266398045402523 3.9986914140620216 4.212313594297739
-9.272911184421396 3.9164768876556217 4.183205774697565
-9.276618504692559 3.83493064451357 4.154524014766982
-9.274694368571593 3.7154952480779264 4.107614825976714
-9.266699277427465 3.635229626842109 4.076895971592154
-9.254896860423058 3.5438131973174705 4.045298988210264
-9.238108575577119 3.463198276703998 4.021800288509982
-9.219982614778912 3.389712685375391 4.013102587925032
-9.20307461606237 3.336848811595767 3.9939787968632485
-9.175271461584622 3.2690090685307314 3.9578755732940225
-9.15098101334274 3.2152264359197633 3.923947700863155
-9.126422694924724 3.163676245141882 3.9010215315163803
-9.09542031585844 3.09948141398694 3.8777530913154328
-9.065605211611016 3.043704297877736 3.8519439737655192
-9.021132206595043 2.9663461416280694 3.8116194356832382
-8.981689639683866 2.8977041130136922 3.790752540450975
-8.944446349698993 2.8381169577440803 3.7609583353403684
-8.914513352620089 2.7902202264830094 3.7432288031507026
-8.87411245217479 2.723948618869383 3.7295783474411506
-8.83513949749508 2.6618974552258403 3.7153750733159283
-8.802310413580631 2.6122249558575263 3.701230158333229
-8.77426961273807 2.5699281096241076 3.6886536506574013
-8.730518170374314 2.504185240768549 3.669961546907534
-8.697084852171987 2.455104632942937 3.657461468986763
-8.657687962184234 2.3986621816926763 3.6396866426645547
-8.594504375772438 2.3109892014475437 3.600805381445416
-8.575777755434348 2.2866632581130912 3.5849064019879924
-8.543738980125305 2.246266076838818 3.5578564442107785
-8.493400469562756 2.1771925867882804 3.5399944046952188
-8.45970286716689 2.1328161867095 3.527177479602517
-8.42066148507112 2.0875218390328176 3.4988700548875267
-8.381333582289237 2.041841310883864 3.4743596167464093
-8.33802758555511 1.9929150736808627 3.454988732504627
-8.29733428439151 1.9472109825725883 3.4399627485679245
-8.258349376007233 1.9068727656565572 3.4245347623813354
-8.194414032206863 1.8430449346781086 3.3985268917487916
-8.135153713958134 1.793309825674228 3.362320440064571
-8.090798575244602 1.755522027006013 3.3445428816530365
-8.038847091381356 1.7128078456664668 3.3277236246707824
-7.982953597663098 1.669441811007934 3.3098656429908297
-7.933412579874494 1.6333137749586846 3.2947948106770637
-7.8750123568407915 1.5911399478662474 3.283556158760546
-7.833141669410757 1.5634148886324595 3.2735027433495416
-7.756650159786593 1.520249622197205 3.246757442988927
-7.697704493518071 1.4806331409302405 3.23319651207576
-7.64305115725109 1.4553185118494993 3.210158616340947
-7.5694403062277615 1.4194193016598047 3.1784739329915856
-7.523715486950135 1.3978238168793884 3.158638120200963
-7.4544684496082985 1.3718580061231305 3.1127447212849573
-7.384977389054889 1.3443055525860461 3.07307001808869
-7.326413248951961 1.3203221913375889 3.049718570799775
-7.2678097704602465 1.2991990290653082 3.0201916150750217
-7.217423255981508 1.2813069875284104 2.9949264946057434
-7.154790333853744 1.2604567529764474 2.964358539443954
-7.0986518964511465 1.2430930552613777 2.932895792686767
-7.023248854395583 1.2258946856468733 2.8757012525840304
-6.957351144136225 1.2076869212102341 2.844760896731189
-6.896395998777277 1.1921297820015568 2.8117677321701917
-6.837467361034442 1.1811699267952238 2.775458752738163
-6.7785823707353625 1.1696035115308487 2.740118518258611
-6.713294561041067 1.1596416696215353 2.698181331944066
-6.649187087181463 1.1518087721300696 2.654330573006246
-6.578393417576999 1.1444501055794811 2.610328705565009
-6.500378711104354 1.1389548228338269 2.5611114854093513
-6.427438333168564 1.1390525541391199 2.5076988727135214
-6.374141942933119 1.142675545261962 2.4636305766517337
-6.3198659057103495 1.1438587721143105 2.432874694712768
-6.229453273664342 1.1464481337773362 2.3879219813276054
-6.164772194595886 1.1459319730665771 2.368501268101755
-6.112734128672044 1.148867860139771 2.3478572983774955
-6.047224482808461 1.154668227597638 2.315424394289562
-5.9845938566597585 1.1616813988241064 2.2857554397873256
-5.883845015764663 1.1750713274573417 2.241014340618306
-5.813560780222197 1.175110151355824 2.235810446209304
-5.7494232258310785 1.1758601151184473 2.2306642296450017
-5.680728610393265 1.18453677758015 2.208987512338065
-5.624028156859545 1.191684690064383 2.1930719642314296
-5.557872067752605 1.2018596894531037 2.174108149731448
-5.488134254078607 1.2108429064554067 2.1595049423097583
-5.426512817637935 1.214855682347948 2.156213169812122
-5.362044204694287 1.215668832587848 2.162668158323302
-5.2902979435784845 1.2227751243581029 2.158845689589504
-5.221802784439107 1.2288004880638246 2.158359301622885
-5.13210378852453 1.2512698442601216 2.1329839096005676
-5.074894841465142 1.273096142215259 2.1058374695753974
-4.995384427510318 1.2931470403046634 2.0888994956185494
-4.923140487075744 1.3061493858113526 2.082082880725122
-4.840067764103013 1.3232407992634747 2.069627600559069
-4.767817615990773 1.3391195580676305 2.0580648175907035
-4.668457081070147 1.3581743542103144 2.0525936871033315
-4.619458276445643 1.3686494872349901 2.050273548057395
-4.568633150884658 1.3779999797510785 2.054707266758375
-4.493164005608426 1.391699514940131 2.06731981636388
-4.405308570033347 1.4169794924263717 2.0768156199133427
-4.341900357933628 1.4373468427364875 2.088435309727303
-4.259818137591608 1.4682900592441182 2.1103697560492067
-4.182651418676727 1.498635326190524 2.144539582261044
-4.12753180288084 1.5257269477409272 2.1709914810536164
-4.066191311111881 1.552631579886664 2.223577413700313
-4.008540848735652 1.5776429912537164 2.2864391407574844
-3.9757355589722545 1.5881228346619203 2.3521294813206373
-3.931621645656132 1.6064981077795797 2.447143374397757
-3.8897551415977256 1.6338750193183245 2.523342422925386
-3.8577444799001253 1.6589049185902915 2.5733436684783966
-3.823913107339823 1.6890883676359665 2.616592343405272
-3.7863369410753087 1.726732691337323 2.657172471664599
-3.758631740275583 1.7547905033782585 2.6903939330859687
-3.7277036645722554 1.7850529545128295 2.7390159065328055
-3.6969603589354607 1.8159306873121976 2.7886415477649704
-3.6660748995283887 1.8471820235089482 2.8411731284360444
-3.6195290713240285 1.8943587357330425 2.927441304306437
-3.578440130337888 1.933723108752948 3.0229403059506934
-3.557519971880502 1.9539120104272896 3.073706319578803
-3.5178154438276756 1.9965106653969236 3.1544586608517937
-3.4953329891769576 2.0248009964533122 3.191164342981197
-3.4637571160598792 2.0655402461342836 3.242141974004851
-3.43243968226551 2.1059213834436794 3.2976554712553563
-3.412322320172166 2.1320762363645342 3.335833992915677
-3.391951373964582 2.1591547908081172 3.372987341855212
-3.3720118952688285 2.186254055304581 3.4104454404887923
-3.3425546059640605 2.2274499484679526 3.4662417165570583
-3.3065558932481873 2.2822585613687134 3.5283090741506795
-3.2651596663666997 2.3565781839300786 3.5821374215898176
-3.237428841772318 2.4087269838665573 3.619918343213274
-3.206352617924708 2.4674703300908 3.6689305365795457
-3.186930363119506 2.5031150551368504 3.709976771154241
-3.1643303146808988 2.5436668188067757 3.759670875335913
-3.141093072187841 2.586335719381474 3.8159801256666475
-3.117396886978162 2.632998177088473 3.870989667367204
-3.0995180055309737 2.6724288943505212 3.910750182242203
-3.080775745775359 2.71597294028953 3.9544959665736643
-3.0621738122165736 2.761764707115645 4.001414353906299
-3.0409712956342694 2.819721303625941 4.056798854560099
-3.0226129151028407 2.873050717389581 4.111359017457766
-3.0042903912575603 2.9315549671473717 4.173588030773391
-2.9802092740000354 3.02929389024917 4.2531071883114455
-2.960654520140651 3.108340993565944 4.342940174880609
-2.95056150886573 3.1493266906034543 4.391713542018553
-2.9418595502589167 3.198546941199568 4.44970793881473
-2.934967407131371 3.2372560420356176 4.4974533135993715
-2.9290555490971535 3.272153923756583 4.546190374221466
-2.9250811314183736 3.300480986549253 4.587752296688335
-2.9221969258259057 3.323311403526 4.6207260873358065
-2.919664993410398 3.343351088030506 4.649668404277867
-2.915754144507148 3.3877139736235313 4.711974064454274
-2.9131877894798097 3.4109610184511285 4.757163167390389
-2.91232566383782 3.436289238812978 4.806006927606858
-2.911635807077413 3.483422185817139 4.867982942229651
-2.9126087535324032 3.526240565274676 4.916129151151753
-2.914608159274664 3.5705070851654246 4.963604362484543
-2.919444964620559 3.628531802087395 5.026122993689802
-2.925119387162129 3.673691584503405 5.0757147872969375
-2.932110617832153 3.71855419827687 5.123692877688316
-2.9414093660293035 3.761945541254551 5.179891088609085
-2.95518481479041 3.8206316320040314 5.236778942210505
-2.969146811683479 3.8797430485202047 5.273084825060784
-2.998301389861986 3.965627705316017 5.340324454431776
-3.0209232226486926 4.025767125541666 5.378048861781564
-3.046555185359238 4.08353588805382 5.414733170403799
-3.0730955600161094 4.137444089197759 5.445813238382555
-3.1194242548521105 4.2240230378514525 5.483938222191841
-3.1517727963088618 4.277443968385798 5.509956192944819
-3.1843506763139993 4.335892670618263 5.521513030461555
-3.2129080681108317 4.374452631477062 5.541256099878713
-3.267402211345582 4.450615143055714 5.567560612007573
-3.3100541260115017 4.508694651339917 5.5798384370686955
-3.362238782946651 4.582655523958806 5.580485528625027
-3.398378927061448 4.628040646114023 5.582271256180021
-3.445658835261044 4.68737160939655 5.580257205652413
-3.5161684419464505 4.773868845734947 5.568207072397571
-3.55134278065971 4.815728832050196 5.5591594037153245
-3.594132031555929 4.865061450611254 5.54750739587944
-3.6489916495540795 4.922771097076884 5.5362629768147995
-3.7061216541402136 4.977406055798218 5.5281333492193445
-3.7627628324513838 5.038744759103528 5.500491294372472
-3.8225583089600894 5.0923775154832605 5.486343107370149
-3.8589297162761502 5.125654899910746 5.473328962994457
-3.896621128811361 5.158283060335595 5.46143790535823
-3.947747978754553 5.200019755738591 5.446783444814144
-4.013441530953213 5.250862855683174 5.42838910078093
-4.081590420537187 5.306380340197633 5.39537163116221
-4.15066260727198 5.360290650062348 5.359921753956917
-4.211248115941816 5.408896790735415 5.3193120086162144
-4.247799066799374 5.440306900710148 5.28574477058667
-4.284912107471687 5.470944298057686 5.251915449609521
-4.331062686673675 5.499531432985654 5.229552616386992
-4.390858191452805 5.533597098716811 5.202931961182116
-4.493968798431109 5.587078074590817 5.160456983274602
-4.581138257775715 5.620628648611724 5.147689792237862
-4.637491820967756 5.639063992838652 5.144314311810413
-4.699246507676383 5.657704656134635 5.144206369088741
-4.769990382618383 5.676433034027735 5.148678833475766
-4.838135437858545 5.6926591679356395 5.155542001532091
-4.910400423276787 5.707775469064117 5.166374039786599
-4.9973239754147665 5.725879402841953 5.176591483719494
-5.078956027287793 5.739410527879484 5.1929509284298385
-5.1645582195588755 5.753994927323783 5.206431854952563
-5.225935153540789 5.766240207027742 5.207938668623476
-5.3004517335522205 5.782026868618837 5.207409761485613
-5.398361977675531 5.800684898700762 5.209300042032662
-5.4711893459931105 5.813579199603325 5.210473388942865
-5.53276062884975 5.824761226872569 5.208953849372757
-5.618742119139119 5.841574447354244 5.202470423791685
-5.668457815449994 5.847997858732567 5.207361626699693
-5.737039065442336 5.8586953315746 5.20776272243659
-5.852363007234011 5.871942258926071 5.219233680091853
-5.9549068033359385 5.886407961747587 5.2178978311020225
-6.02082421755 5.897080321752636 5.211258712523313
-6.097135799465506 5.914291228516197 5.187123489471342
-6.168907429757877 5.930407468551204 5.164184807360738
-6.249834456392551 5.946492152926 5.142372822914729
-6.336919108887977 5.9610358174930695 5.124852763806598
-6.411600015430569 5.9710062433942905 5.1152842845371564
-6.5077257752329025 5.980382779355033 5.110444710577094
-6.570025199584188 5.990299657183618 5.094396899635838
-6.647581831415031 6.003821484848668 5.068633645460987
-6.735227653785953 6.0097145263788985 5.0649903841935595
-6.8652440004690245 6.016198052591713 5.057973851272851
-6.941142520363849 6.0163377718414175 5.060317293834001
-7.0563889409249345 6.019064011461962 5.049672357196811
-7.132864343822766 6.020090213612777 5.038634702959999
-7.246887903354003 6.016391795085621 5.024765782916503
-7.348372414818949 6.006930092562513 5.013614753437271
