325
6.577667661694496 3.247782955161628 17.182905566749103
6.486948471099191 3.296165650108743 17.22000856469502
6.417174894772104 3.33375698770677 17.24134950859556
6.315010917787175 3.3929466343521986 17.26195820704314
6.245178145826245 3.407014123708014 17.29589817517389
6.154428533042414 3.44250481132799 17.320075126931915
6.09002602363533 3.4682266145281604 17.334895540635056
6.013837640917011 3.5083935463251708 17.33847748681637
5.9675806470259944 3.5200776849347557 17.35372766600582
5.922377982423834 3.531494415163121 17.368627794024995
5.868281059043788 3.5557560893771543 17.372736900659852
5.798565164081532 3.58570358110284 17.378113029920144
5.730422003811525 3.6133988526012635 17.383306015435014
5.662855318914044 3.6432286444805024 17.384689945114214
5.596591057550405 3.671240366612756 17.385716695288735
5.529039006954676 3.6977917278227084 17.38794233007847
5.446210777867856 3.7302215712232263 17.38936340807015
5.399089794422746 3.7481461963315637 17.389729657297206
5.331093613808262 3.774912079431574 17.387772024168488
5.25836274813058 3.808050400660517 17.377143862050215
5.159103949623304 3.8446833591983802 17.372786929316796
5.102988323460533 3.86103748495204 17.375443009016916
5.032045168400479 3.8734541109268834 17.387214179500127
4.96058073290207 3.885052932858332 17.398478667054484
4.8691501351633155 3.8972984132500352 17.41306315369118
4.777419217174183 3.9056197400590618 17.425948781862726
4.690738164000907 3.913638848894494 17.43121804269969
4.6341552257980005 3.918478932155973 17.435121376892347
4.543172428987804 3.9240863066682765 17.43388384990492
4.467892226910257 3.9267940631254 17.429425180956155
4.393454237626644 3.929669708584643 17.419947877456334
4.308905548309776 3.931862019815008 17.40536985255047
4.246489981010312 3.9318923534368926 17.39381024586934
4.182127484153889 3.9313306938155312 17.38195449171743
4.115904994833308 3.927788556307841 17.369134484121428
4.05315447886907 3.9238083763344216 17.357051322417938
3.9749049611777565 3.9152491246665386 17.345302781185747
3.924917653271753 3.9084185657682378 17.338647073345978
3.8558559978364064 3.8979120288209144 17.33149483943158
3.8237667383914316 3.889803878027325 17.331024166309337
3.7370451312990443 3.8710393162301555 17.32647044362786
3.635755745848855 3.8555884413259216 17.30982447278358
3.577937272915567 3.8428300029615565 17.303636123179103
3.5136817377618526 3.829680736575436 17.29454904921491
3.3716738825806685 3.7924710585730415 17.28088005561344
3.2717846840141784 3.7439755234886603 17.297708783189282
3.1663346325174326 3.7086569825034905 17.29224481708716
3.10933445290582 3.683384164368408 17.29748097468669
3.0612386740501814 3.657879407709017 17.305989378524778
2.970292497648968 3.6071945388983133 17.32454333030276
2.9066893167540484 3.5709714083523947 17.337903156359996
2.8632152251570653 3.5459752212677023 17.346848755260563
2.819888820032999 3.5204489438431077 17.356157112045643
2.756828051889269 3.481661343943297 17.370942461834137
2.6541886909649666 3.4097584211921843 17.406260542081434
2.5977493699349865 3.372161900432851 17.421517719820574
2.5474196169647865 3.3460174008504007 17.42641585406648
2.4739063454293317 3.3066367091885924 17.4344590928769
2.399734026154172 3.263492792363631 17.445428561258524
2.3183604423398956 3.211812718896444 17.459577825818474
2.223460184740052 3.1567460214550485 17.469003845238053
2.1683446753909714 3.12307534151648 17.47633019525036
2.115159764458906 3.0892261876099747 17.48394293302027
2.0581300072300723 3.0505197413395413 17.492829264227165
2.011007019406536 3.0217828615016034 17.497496622236493
1.9512551637401576 2.9822493804140775 17.504651436668038
1.8792096935080516 2.942055528780185 17.50350343330745
1.8380338688960784 2.9085246476704087 17.5111947429553
1.7950649702487607 2.8730045311360035 17.52089096339718
1.7491928047680736 2.8366855082346154 17.52784888827283
1.7092946626975603 2.8037063356062104 17.533314878598166
1.6812770356553925 2.7864353108729523 17.530203124737604
1.649702504481502 2.7669724563265428 17.526697502219555
1.6204206267285164 2.7549933973795495 17.516296059049
1.5762759767839412 2.7337350200356054 17.501802150777255
1.5027613433093165 2.6965303542402816 17.477241663945293
1.450799963578024 2.6642317657797756 17.465098587500737
1.3927194185621081 2.6239587871447965 17.45429933160715
1.3099701212080386 2.5640265943584106 17.437990685454338
1.2564536075989317 2.529397773791973 17.42011232125953
1.2029136360950667 2.494676975803416 17.400185032721005
1.1561867981289615 2.46283623571309 17.382519496605312
1.075085098507059 2.3994209054894133 17.35821467802813
1.0017875457531449 2.3332894682158782 17.344152585048995
0.9476964466200344 2.2907747490203407 17.32355745804308
0.9065029528222899 2.2625326575234874 17.298487871641075
0.8681627175176809 2.235904201738399 17.274685545244264
0.8081748470985406 2.1921732833568113 17.236747231192425
0.7496445684415529 2.13705653748064 17.208674705353648
0.6905259511466659 2.093772122494726 17.153514520488542
0.6360613255332963 2.0331849211705952 17.10806891546829
0.6076290434198814 1.988282078789923 17.090273844813556
0.5690315557303651 1.9170183311545275 17.064968093959802
0.5429242556201253 1.861843451395898 17.046054549764072
0.5110108765193295 1.8057323811350257 17.009835556468058
0.492730236639197 1.7359868428847305 17.00802304798011
0.4817984175649157 1.6397356648065662 17.024991415073913
0.47747522128477593 1.5862423837587718 17.032976921377024
0.47191565690880766 1.4851976251478733 17.03389637413247
0.41117168974884155 1.3921019061861815 17.00907409680922
0.37791229665157067 1.3513597028502966 16.97845249343437
0.34422559415993015 1.3041575474881535 16.95630395767422
0.31185250311159707 1.29231898105325 16.896921775821195
0.2776479582563409 1.2721377519318287 16.83836290490704
0.2637974895498465 1.2844414195673357 16.789459974618804
0.25686828714576304 1.2867919297659691 16.72464950909689
0.21460035254559218 1.2876001501959449 16.62865981845542
0.1778240949751675 1.282699956505689 16.556826685969387
0.15102843057125037 1.2734111784621893 16.467490497123176
0.13750825511103404 1.2643475938761055 16.41766921582322
0.11990043880908763 1.2494209384433974 16.34482151886764
0.11318556294002846 1.246577069764533 16.277463823493274
0.10772435231948485 1.239050681965895 16.206741346478324
0.10466362966090381 1.2267184432222331 16.152057168119416
0.10206243537932469 1.2078517588684496 16.096453607481646
0.10154298917573445 1.1782827688068602 16.028757636339865
0.10466427944314027 1.1472025872522122 15.954646299683851
0.1073122564980089 1.1205584138479496 15.902548047733244
0.11313675081584273 1.0686306017326084 15.815843755710791
0.1165136006276768 1.0299797883997988 15.759856814496324
0.12126159786776469 0.949065875058543 15.664972580371622
0.12496164143273036 0.8995780006615997 15.608588405982307
0.13761349462310912 0.8437562310813229 15.521932416509461
0.14816816870319682 0.7948123741390694 15.45141254167213
0.15969648369399314 0.7615981222050641 15.396812024551899
0.17473151639434015 0.72392442530714 15.320461694309778
0.19536601525229225 0.7097081049555163 15.25175543299818
0.22442860353477712 0.695825563176558 15.16225551592645
0.2390328561315973 0.6841703374598973 15.11490573412146
0.25949649056553215 0.6675301149391357 15.049607145558724
0.2798035577653548 0.6317636349843943 14.971592634004434
0.29079444601070503 0.6036366277420724 14.92404110674455
0.3055645310170134 0.5610008273926406 14.856481116501765
0.3208529819598731 0.5338536140689447 14.798724320748374
0.3403818216733987 0.5186984083696737 14.738806479273176
0.35832578000126913 0.4971350445050424 14.676757754728602
0.38387020916844583 0.4628272999744292 14.586519377503706
0.40366059015775413 0.4591255044911895 14.535587669860153
0.4255566018854493 0.45818278045835914 14.47864106524495
0.4455462649801867 0.45236635755448074 14.422367695453687
0.46010873931408725 0.4343977776777921 14.370476502253162
0.48335853825096886 0.4363470775642275 14.310532495256652
0.5025600249570337 0.4388515973062779 14.252883201449155
0.5299575459926935 0.45421011144281653 14.178111531358084
0.5497845264499708 0.46996912278093017 14.123203580165264
0.5745852256109285 0.49251141713571744 14.051178122917264
0.5971825341225736 0.5196898355172275 13.984509891134199
0.6165705738805287 0.5480714868013914 13.928249785111245
0.6359552565119941 0.5746096694141061 13.868397134759594
0.6529895925915681 0.5969266016194466 13.812702437911046
0.6730216964484428 0.6195217547370087 13.75227815606959
0.6913590188361181 0.6382578185200574 13.69788607805939
0.7120300526625922 0.6558150713142661 13.639084095307439
0.7360484167511556 0.673916483484466 13.574856646950959
0.7745717979475149 0.7021935246854083 13.480279453155887
0.8115401273819085 0.7099616836870792 13.408619826684635
0.8538736779661675 0.692681659234605 13.335951932756746
0.8871355428353664 0.6603425218843464 13.288660527778074
0.9306555959154554 0.6526412939562416 13.228545210810484
0.9701709191896271 0.6397680845911049 13.17897817151211
1.0216819533276735 0.6491853937213685 13.110203005426122
1.076842936932528 0.6385642261308311 13.04859269856924
1.1332193871901417 0.6198421026944629 12.990006278306549
1.202522080856926 0.6247330932901214 12.90735107611454
1.2391726595482915 0.6185723150282447 12.866846507481608
1.2839955614482061 0.6336726053889503 12.809823946589567
1.322981083754109 0.6484617420456367 12.76008218959937
1.3632386281386584 0.6633337737979446 12.709669206651004
1.4136189068961913 0.6856067702378423 12.646362747576891
1.458077204691124 0.7161288521544371 12.587321569826742
1.5089816349694172 0.7495406359241024 12.522416999220585
1.5520785453252284 0.756680550645747 12.473283719588007
1.597447587031965 0.7835925326334525 12.41801237255613
1.6455456774411767 0.8183074655050886 12.358936646297657
1.7118624595745153 0.850701898708075 12.283230593285708
1.7782228466554326 0.8610189434742415 12.212638735361423
1.8201416269741797 0.8874545149051922 12.166226482652345
1.8530539557455865 0.9102845675547027 12.130013298909962
1.8864658482066234 0.9319277624226867 12.094096672733144
1.9203247038485318 0.9450802670243199 12.059558532290641
1.9545535314619364 0.9587131411904828 12.025130956700895
2.013083276719078 0.983026929728652 11.967631994865851
2.0589961095033678 0.9981188561410157 11.924147903867798
2.112253423977221 1.0121007961214294 11.875534975484133
2.168590430482848 1.0213965242719976 11.8256821450635
2.256649127391875 1.0271179048259809 11.751842162679523
2.3114214327976037 1.0309577626323607 11.70753081749908
2.366465451840056 1.0340035148318005 11.664721775000306
2.4218422875664287 1.034992565536852 11.623198895644563
2.484756348170048 1.0278350541630017 11.578268914437679
2.5329985102651964 1.0258080488517107 11.545036048696609
2.621114910941244 1.0198387139670722 11.488304998823185
2.7004405911996523 1.0227448722588548 11.440685873237442
2.7682606282768036 1.0287563249173433 11.403167982533038
2.875579626520783 1.0287984925945999 11.352364546430938
2.9320341958919958 1.0400800271169874 11.328715644512304
3.0127919610322094 1.0476299044366817 11.298653374343672
3.0749648341267872 1.05156760827135 11.278399378372061
3.1384209904443297 1.0585753193783694 11.259835941920176
3.2031901582388276 1.0658285346367773 11.242979564502502
3.2690541429334976 1.0746230538799706 11.22776626209738
3.336085158264636 1.0845906931543041 11.21415911791566
3.400847159548189 1.0924265630946532 11.202425514735538
3.4724211291977225 1.0956498331813647 11.19101923511294
3.541596662003348 1.096604715679348 11.181339996449527
3.611117543636549 1.0943138742521743 11.173143207718145
3.709876640395108 1.0908868459812497 11.163349506745998
3.7970132298646933 1.090711820812154 11.157143511165309
3.8718159559146015 1.1043537720239565 11.154307800130454
3.9607777220025238 1.1334075080281067 11.153565892184325
4.017153275345377 1.142384803037178 11.153453013832529
4.088965748460639 1.150325943036333 11.153910281608386
4.161050583817305 1.1611346417409374 11.155709914855542
4.218413286452781 1.1698132163244388 11.157290379245122
4.304451332538594 1.1657604919781877 11.161302901326021
4.379988059237812 1.164947283060351 11.165693077061093
4.445730130716064 1.1568943588544895 11.169454389881256
4.525615283230578 1.1469516319569006 11.175165657164797
4.585806465201912 1.136615327660162 11.179096884956351
4.675722501875033 1.1305331759659296 11.18962276412162
4.765612434795062 1.12787608249399 11.200298741594555
4.854174398323497 1.1353629193270667 11.214144295860006
4.906715517033039 1.1395767001119674 11.222210775343289
4.990355973314184 1.1419750517835494 11.236770665372788
5.052984821695783 1.1427278200667281 11.247839497898692
5.113696449579183 1.1375482590184598 11.258797491178623
5.209237349258116 1.1308312525967272 11.278643519459695
5.324621255168125 1.1318883070676966 11.306120419099571
5.4389879447993374 1.116039869623199 11.336238313751782
5.49942043355057 1.1041286879702987 11.35392630120559
5.567447165209621 1.0879430184333447 11.37591911036181
5.647944135111486 1.0672067198485538 11.403369768100177
5.7538300797670505 1.0431747797317295 11.444745243951665
5.808127359602722 1.0257110440604373 11.467725287709058
5.85943508781036 1.0079645165740443 11.490211385310726
5.935827650575913 0.975052587186056 11.526040710695007
5.999784517121271 0.9452677930298821 11.557927103479052
6.0738449905077925 0.9096969400693462 11.598468656260007
6.147996357582837 0.876350812059516 11.642234098316525
6.206562345357324 0.8404181617149575 11.679951866852928
6.247931133428981 0.8254818135202324 11.705919672370964
6.306727439064951 0.8066453290506042 11.747296537707879
6.346832837831926 0.8026191928311306 11.777559255731404
6.411124202047566 0.7894026423351477 11.828028952992693
6.453568826316947 0.7830232693340822 11.86329642609164
6.500981854653956 0.7755263853981447 11.905189196075309
6.563417567999809 0.7555410178937123 11.963172281719881
6.629204232690297 0.7254449672244885 12.027599567211883
6.664198328527672 0.7072619022796021 12.064684305478217
6.71055792229612 0.6939377587635898 12.116911787707046
6.753651542661684 0.6843688623247051 12.167876425056708
6.789030383255289 0.6927821522143898 12.214382354149215
6.831869952040138 0.7015236935264086 12.273136508055131
6.871406483339331 0.6997511675145756 12.331910744004517
6.919524131524207 0.7070891439109257 12.41322872631211
6.960203566376698 0.7048716790956195 12.490084732567354
7.015438908103473 0.7309198818715776 12.615873373177113
7.04562320114846 0.788054767204355 12.705407908090724
7.064069790342509 0.8276266110425174 12.766972072488691
7.094964502149113 0.8432910923562122 12.863698757784846
7.111370110848598 0.8580268842520891 12.92248879120373
7.128960409414056 0.8758790804866186 12.990512992128135
7.143473956584545 0.8983461905513517 13.051841065171548
7.159754146715083 0.9253817691327004 13.126755255531773
7.169622571267472 0.9552539168727376 13.180565609237174
7.177590829534238 0.987858256491216 13.230089782564047
7.188323477133827 1.0376413403043765 13.304830017295728
7.196655387039713 1.0778238704597802 13.367452507466563
7.2079205124738035 1.1386174510389955 13.457285555306463
7.216510393447861 1.1886894531166137 13.532057236279702
7.226369534455889 1.237219650183241 13.615290969196725
7.234846703502987 1.2800323698193745 13.694246941193772
7.242115646333805 1.3156616703913917 13.763941902949234
7.249313169345596 1.3416162367194557 13.824642743883938
7.258786485724065 1.3906553262083898 13.920050572811363
7.266988630696237 1.4377611832598172 14.008732230385736
7.276082455618953 1.4737673733862335 14.091037571671539
7.28242715870324 1.502262178795859 14.152876162356076
7.2874525242961585 1.5326088684427654 14.211520840996702
7.2915304180000975 1.5597390498716281 14.264529916670412
7.297475484796831 1.5874905377492636 14.338024651491228
7.301465034096122 1.6079979021948896 14.392366302047591
7.303569703232511 1.6544466160499285 14.477302890590764
7.304690245960424 1.7038648001428944 14.545272850619227
7.3058506557829705 1.7506888791639783 14.630594760622849
7.306039708432959 1.782345948769465 14.692679822657883
7.305343186086341 1.8151701546062649 14.755310534938008
7.3045235365446 1.8537497218607415 14.82073200486196
7.302467771741458 1.897080957019992 14.877222292248288
7.298563279320408 1.9461226409429875 14.96069170905957
7.295143338547706 1.98016625516484 15.077961520268136
7.290545821091906 2.004241110254081 15.18074744421682
7.2858123206172145 2.0260673023547726 15.25988558688342
7.280619713886067 2.0448819974577477 15.329674317687264
7.271363416439191 2.084677204409984 15.42700513269427
7.263655485742534 2.1128150485281543 15.499238061613347
7.255835395910397 2.1394704834328406 15.562029650589981
7.247990643253113 2.1672235500624693 15.619718780937038
7.236989726213694 2.2080238301859145 15.693609498193076
7.226697974787271 2.2752141623664235 15.740258640872735
7.219928977773282 2.3126439668593184 15.773152107358758
7.211413114355427 2.3554025209077 15.814677849290899
7.203376340697468 2.3964511161627966 15.852101723420812
7.191721273894636 2.4579533308331944 15.904692003914331
7.182033938628452 2.4956853377891486 15.962599188176615
7.170592892351454 2.5324500929097082 16.030987414303173
7.156218666205555 2.5672699476203187 16.123868226347394
7.142463929285641 2.6017849036865917 16.206947316721024
7.1323186504782905 2.623722949504846 16.267965320778966
7.117733750779999 2.6602983525919344 16.34860039811667
7.108702584509969 2.6887020185370742 16.3904980924115
7.08821188164089 2.7490291132146263 16.472313863884505
7.0758252257581535 2.787515780551897 16.51558915934947
7.0622015894799395 2.8129225547884067 16.56226875960363
7.0383017870698135 2.85243883199636 16.63673418977095
7.0119055116937465 2.899640801288373 16.703996344154426
6.989634861988216 2.9348282219247475 16.752772682460073
6.964449933311461 2.9682667297647116 16.800692167819385
6.937871336407839 3.000552468563737 16.848693476045245
6.89529056098045 3.038912013989415 16.915204064017882
6.852317585338317 3.069289715766092 16.977359249966273
6.7955707300293575 3.1023859952430373 17.04754264660276
6.756143317428729 3.1313450891519237 17.081142423903106
6.7093302174639575 3.1671528601697387 17.111769286268462
6.639694701443299 3.2098475793001837 17.154889391709528
