503
19.211350107814646 -4.016778063361064 -6.632706990131024
19.122901844505257 -4.053801136768108 -6.6272266689539086
19.040221354247073 -4.099722211153859 -6.613486625311875
18.989041065997966 -4.1308482541044675 -6.600925376781751
18.938496871603604 -4.16104983977068 -6.587267967716914
18.887869649609904 -4.189457250948038 -6.572389208696345
18.837046618873032 -4.217286777005919 -6.556409280022952
18.784468204927705 -4.243222439539849 -6.539253863748899
18.70693207001434 -4.278461263149396 -6.513302409932155
18.62388601909798 -4.304901777987919 -6.489422580272192
18.571024008261574 -4.325178233380047 -6.469931945404318
18.50737166875679 -4.3499559910363566 -6.444217052134974
18.4403009060522 -4.374501076316079 -6.416355023363121
18.392271060302107 -4.389346898402055 -6.397082340299278
18.342464161164713 -4.404138486256324 -6.376598646371148
18.29246240491736 -4.419154503844357 -6.355965641203265
18.245008179276 -4.4331357795985245 -6.33613426315653
18.19765307426102 -4.4474092399694705 -6.315774540873134
18.150139291851815 -4.461762746885011 -6.294932768129025
18.088700970051036 -4.480202153681493 -6.2678813671542
18.006017232531626 -4.502829031766506 -6.233665316651354
17.949051841394358 -4.520020051813008 -6.207428508757712
17.887960482388074 -4.539215420218595 -6.178240370120293
17.826510394441357 -4.557223523794926 -6.148378673945251
17.774951282908034 -4.5720486181430005 -6.123147145030515
17.723057952391443 -4.5873532026123485 -6.096520425635049
17.670152388143904 -4.603321180050324 -6.06805155840098
17.616812092230596 -4.618876705059401 -6.039287515657024
17.561456720726397 -4.633553262429647 -6.009613787463865
17.504273380689682 -4.647174391077506 -5.978865708079051
17.44679343812016 -4.660898072304462 -5.948674121353337
17.375112090232037 -4.675727895167121 -5.9108887236581
17.328623727558245 -4.689754643915247 -5.880676089346147
17.281261642342322 -4.702779474749526 -5.850742525761836
17.206823655560513 -4.7194461700455825 -5.805149178548931
17.16368729768436 -4.727986900510633 -5.779220842917071
17.119337864560784 -4.735408523646733 -5.753988791758852
17.074036040336843 -4.742373568260632 -5.728034756859881
17.027635956849615 -4.748614348694332 -5.701938122644778
16.961462715525016 -4.759246510356935 -5.661582992302648
16.88822642241738 -4.7733148571605 -5.612599362313272
16.841483311329313 -4.783008117759916 -5.579487143194051
16.79634413572316 -4.7961660999321225 -5.5422200691236805
16.750400075661467 -4.80858092979409 -5.504105280454628
16.702415388083597 -4.8201711482337615 -5.46644398737623
16.644371558152912 -4.833202530257214 -5.421454813084001
16.595519960724026 -4.8457543800143945 -5.380245866266535
16.554820612819917 -4.856846452908339 -5.344789217435726
16.500528405149844 -4.868716905440261 -5.303103397073758
16.44172532128008 -4.884818390821852 -5.253263169972218
16.39682674197855 -4.898147478782269 -5.214295822285023
16.328564589375056 -4.915667665340793 -5.157542244453685
16.279416419215906 -4.9260031822647825 -5.1187839126089525
16.228985701098274 -4.936612675921674 -5.079022364205295
16.179031401206508 -4.949621965359343 -5.0371604671956005
16.12936925540095 -4.963930619022506 -4.994025417267868
16.080853725801823 -4.977767844745751 -4.951798143710185
16.0254416499911 -4.9910184505064805 -4.906150661301481
15.972371393856104 -5.004026742402697 -4.861835700750171
15.918787341907818 -5.017202070099511 -4.81672557058901
15.863890199177026 -5.029492270247205 -4.772068449091203
15.811161286103532 -5.03914861953705 -4.730890215936546
15.707377944391427 -5.047353024107279 -4.658276993805963
15.64768773145966 -5.052737428652984 -4.614892284544219
15.588501200183089 -5.059373821314189 -4.570211261692452
15.530634088156416 -5.069139198737078 -4.523898204024167
15.473158812854612 -5.078555596270091 -4.477050802716601
15.418831284773765 -5.0871729345794225 -4.432041069865812
15.35699334571436 -5.09737032368397 -4.380395463829204
15.299784976157369 -5.107118244467163 -4.332958131790962
15.243134529167248 -5.116462744948567 -4.284811148406255
15.205029126394978 -5.122616546845032 -4.251929485325183
15.151653411245215 -5.131465453811309 -4.20626297565679
15.09256554438837 -5.143629257962509 -4.15275276177392
15.056340773270788 -5.151538965042548 -4.118848610691801
15.002176738479472 -5.163114933963865 -4.068481621593288
14.929766308373852 -5.178383182599903 -4.00060554167881
14.859180270127878 -5.193215137548281 -3.9333183203330053
14.80821057503795 -5.203415677812169 -3.8821761301418984
14.756065191280326 -5.2170347712780725 -3.8313470811030523
14.705848784694403 -5.229443706787892 -3.7805057849471875
14.655855386779344 -5.239579900889428 -3.72991032810913
14.606678384620707 -5.249199452425076 -3.67975411686576
14.559975847801608 -5.262104282769691 -3.628608508643337
14.514205751828728 -5.274644878636478 -3.5782872912864705
14.469360125058106 -5.286381129105283 -3.5279862082212863
14.425378829619971 -5.297514430832965 -3.477969804940485
14.383463307081128 -5.309066020189068 -3.4296823196716493
14.331057387799385 -5.3202386836596 -3.369458135400689
14.280838378026118 -5.32825748538446 -3.311351106614703
14.228335144914281 -5.335954912959588 -3.248729920767656
14.19039861936684 -5.341040600752917 -3.2021774719751273
14.154273010238382 -5.346167828837073 -3.1563405644311544
14.105347520416528 -5.352369709466835 -3.090796794608241
14.069223817077635 -5.356817154774168 -3.0414248044082886
14.03956138250476 -5.3596825939261326 -2.9984007897355047
14.009117670913637 -5.3620388292724055 -2.9524919107923564
13.980253002477195 -5.363553557427302 -2.9068087979918142
13.951740669763923 -5.364308375181661 -2.859463125800945
13.92593481687195 -5.363613569021808 -2.815003562196795
13.900097663902326 -5.360114327251107 -2.7702099968099074
13.875393680523803 -5.3603471467499055 -2.7240902426986486
13.852002515165843 -5.3590257938838395 -2.6775125603141747
13.822343665068598 -5.353323025518884 -2.6172249696288836
13.7803055343327 -5.342796937870952 -2.5236611982541124
13.75145162627884 -5.333553339591955 -2.4526416280066385
13.725100423846254 -5.328795930083926 -2.3781297318018053
13.706364153731885 -5.328110562873066 -2.316135324044505
13.687443473785187 -5.327054701553735 -2.248868892132035
13.67012898198557 -5.324997009181541 -2.1819657747085124
13.654747739762106 -5.324216517845356 -2.114229177092896
13.641467591148924 -5.3258874398945615 -2.0484550578596465
13.629736972471573 -5.326201381910941 -1.982682680655155
13.619142880401204 -5.326781381319877 -1.9159827830025433
13.609580740462528 -5.329673753811679 -1.8510108501875884
13.602216514229234 -5.3319795141124615 -1.7866904173664144
13.594860288059566 -5.338866592866081 -1.7098286715018762
13.589609969911058 -5.339148147520614 -1.6586762684488052
13.583091372619268 -5.335607338688087 -1.5867563486419485
13.578374020588193 -5.329277239876195 -1.5318772404563603
13.574040151914643 -5.319977653115691 -1.4724475490495195
13.568887006394093 -5.300669024884126 -1.4053091577675891
13.565583019962256 -5.279589401648543 -1.3426015744127495
13.562339323959225 -5.255494015521048 -1.27800329915513
13.560840144064597 -5.234166523684905 -1.2143502633779013
13.560266307793786 -5.205503412630872 -1.126765623735933
13.561088949328857 -5.187931382352929 -1.0451813235631322
13.56261573445263 -5.1753357329978 -0.9818882839304406
13.564880546690185 -5.160999273385432 -0.9183276027164275
13.567896923802783 -5.1428041715773904 -0.8540819826440469
13.570711859045513 -5.131413708464727 -0.8028513984094241
13.575440292063142 -5.1414486768360455 -0.7283035092898222
13.579546181732997 -5.155500793583162 -0.6733316363568962
13.58603028347199 -5.183570206422825 -0.606793121647577
13.593400753678178 -5.200644216911824 -0.545915962162864
13.607580882950034 -5.232343188996065 -0.4410275212145649
13.621662818579136 -5.276621325674796 -0.3677139309072466
13.636125071641919 -5.316454620439881 -0.3026612195259224
13.661707464797274 -5.377818557720195 -0.21019382930150243
13.691152362802967 -5.442199978181051 -0.10253197721845098
13.712375438553119 -5.462187731881478 -0.015420065259196925
13.72724916717807 -5.4744217063152725 0.04496018144547165
13.742539964572385 -5.48647253894533 0.10538479783620947
13.759188888724749 -5.498466460606318 0.17064214974722347
13.775894352314829 -5.513559890912708 0.2274194374674332
13.800677879123826 -5.535322577989501 0.3123587480279095
13.818109902357481 -5.546894260058053 0.37301308622023654
13.834474181300449 -5.5575578377622605 0.4287291634126351
13.858884842915689 -5.582390685191193 0.49203342305229114
13.88116611401592 -5.6034746452659085 0.5487637348797323
13.907274607919213 -5.628725434249315 0.608799645983999
13.936508435794218 -5.6592164744580025 0.6657012883153328
13.969764672740789 -5.6925120179903 0.726404635568846
14.008325929042071 -5.739270239742789 0.7752914187058577
14.037113662879788 -5.771916087270981 0.8101648659788276
14.067383616422854 -5.804347794059602 0.8451048977123632
14.101591420337682 -5.838640596544844 0.8864255685349329
14.152583100112505 -5.877487853825205 0.9550372935800144
14.191106479101023 -5.901337793642185 1.0082532506815198
14.243192942245559 -5.91021245027167 1.1041973773289717
14.2767870103094 -5.910040060131099 1.1680544823058083
14.306061494248867 -5.919859487284137 1.2092641504933015
14.339989423440757 -5.929369793089268 1.255918650356807
14.374904169541246 -5.93762719970411 1.3033693215348752
14.410609679569323 -5.946522801441388 1.350441571572163
14.449987429951335 -5.958425061255491 1.3967975075727015
14.491028936837179 -5.970625624690962 1.4430285031964845
14.543394576976493 -5.9860616092295125 1.5025689638834772
14.59259081397968 -5.996909311127979 1.5577768836020471
14.648551063107705 -6.007687874823308 1.6213810765804268
14.691527124500457 -6.01519670369753 1.6691487268929368
14.735516461617244 -6.022499809830588 1.7169222445134054
14.780109052528255 -6.02930876067837 1.7647831687993651
14.832511089570128 -6.033116493408736 1.8229955013194257
14.870369188327537 -6.03951928419815 1.8610012977881496
14.917808449560004 -6.0466569820073985 1.9088495633845994
14.964775132799552 -6.051073135258855 1.9569627567752157
15.012086664865794 -6.055472858078064 2.005337807530081
15.079378035611875 -6.062666909983054 2.071171632951886
15.154872878130071 -6.059277673100517 2.1515362883709592
15.200612261924237 -6.053844500846214 2.2013065384844843
15.246777882722842 -6.04731734052665 2.2513463708496815
15.302328729671585 -6.044180439669326 2.306919929584611
15.350970745694346 -6.057741403084032 2.345925754650196
15.391392233624812 -6.068574966392216 2.3774606451109825
15.44388891287892 -6.076983062476144 2.42185962418551
15.497083326015426 -6.0814777640447435 2.4688231439499013
15.548612114491071 -6.080748759952975 2.5164814618825773
15.599664058384583 -6.079588393601096 2.56321503071616
15.651103991115429 -6.078223374399482 2.6102276190226306
15.70419521101431 -6.076249979374722 2.6583561647763183
15.758536218979776 -6.073398320986083 2.706705318929922
15.81083513897898 -6.070956246151113 2.7535910967908794
15.856464478209201 -6.0669809191470065 2.7944597835674774
15.914268594316491 -6.054744300767577 2.8490793046118394
15.964857377588919 -6.042991412690384 2.896793743790127
16.024842078011048 -6.0284368128396295 2.9530999878547597
16.069758255461828 -6.023787261305332 2.990832058636883
16.123998900562412 -6.018721571799267 3.0365618987977907
16.17847833268217 -6.013354194317948 3.082060337920982
16.233217887644976 -6.0071317489331975 3.1270961478246786
16.28445716236164 -6.0009111756708755 3.1687522982621985
16.32823615695294 -5.994866940306295 3.2048624000012325
16.372840875708043 -5.98904359139229 3.2417089258855274
16.439627135106768 -5.984244761584128 3.2941653214152744
16.511301383948542 -5.970963437218099 3.3548308356771184
16.581078724583495 -5.955803023673919 3.4139162065214137
16.664416402520953 -5.957438244194229 3.475559573177833
16.711091719237608 -5.963700508411728 3.5079583979469113
16.773648843474547 -5.97584529266215 3.549469772161359
16.82210826763746 -5.984070731652718 3.581490915477179
16.896632029769954 -5.994269910085844 3.632130363910301
16.959072457324815 -6.006956409647259 3.6725792271190496
17.03133228679276 -6.01884038019643 3.719928658322587
17.074875504215854 -6.03066941753411 3.7463973957615533
17.13471270530168 -6.047344203033093 3.7823329496443936
17.194620856682477 -6.063018898099033 3.818397460849761
17.248308515749187 -6.075642341724711 3.8504952220685507
17.315169372025622 -6.091102202494897 3.890095089207991
17.3758886986981 -6.10514645265053 3.9259507646582055
17.436850852777567 -6.119272330590626 3.961300864772042
17.506008644899147 -6.135144075785263 4.000923502577393
17.561868039843738 -6.157681721012395 4.029469321980292
17.606101058070585 -6.181647687034211 4.049992230296766
17.647730623136688 -6.203925836702368 4.0689696503824955
17.693497950350455 -6.223879055560946 4.091360805532762
17.7753283827968 -6.25303667301926 4.131613916698212
17.831922633949752 -6.268407472839641 4.1607358952366
17.893603241362612 -6.2870921699938975 4.190618675106499
17.947278167469833 -6.300311791268964 4.217322383511483
18.00958249255786 -6.310861633594083 4.24832280170418
18.07221069125262 -6.322002582021961 4.2783176520555575
18.14363190240403 -6.332580710914732 4.312466265150947
18.198463636821266 -6.349668003339998 4.335463976002739
18.276343592487684 -6.3801223195505035 4.366165524074205
18.329428116023188 -6.408598651031593 4.384671906177166
18.374103136703383 -6.436030253042588 4.399113137110604
18.418503738034445 -6.462855120186246 4.41326136635162
18.46287698443212 -6.490438621996795 4.426957993442459
18.505761002857007 -6.517815671748481 4.439827929818687
18.567077898891874 -6.558426347875532 4.456880567004344
18.64182904983317 -6.625903506754591 4.473802659385525
18.708626376034765 -6.686731322130438 4.487598389258833
18.774645389128153 -6.736948691533151 4.5023096415103545
18.83853119196617 -6.778204193304656 4.5166559169148695
18.926875462043085 -6.817922425650249 4.537542822976365
18.9813893704193 -6.831478514011755 4.550818593037523
19.04475803890262 -6.843477886650605 4.565200001957487
19.099209570975113 -6.847710055919261 4.577187141355427
19.157038965926937 -6.846997778529847 4.58924253770596
19.24850910413786 -6.841591926556733 4.605309880300357
19.327973494440194 -6.844003527670884 4.6155865451541995
19.38444752878305 -6.8491462374131835 4.62020307778654
19.444756656936292 -6.856392266176053 4.6230244185096865
19.510325403629672 -6.865543838098038 4.623932938079729
19.57605598624494 -6.874060053004525 4.622642352533786
19.64167714092453 -6.882532179269168 4.618858302197474
19.70785911879767 -6.892393927616897 4.6133923225529845
19.773867519994162 -6.900675074436222 4.605516090731262
19.839564713002453 -6.907433690508556 4.595711414081853
19.90580815532028 -6.9132233645515395 4.584488798637667
19.98319155596635 -6.91360246184723 4.569602926503659
20.04421945584742 -6.910095539352092 4.556393721802424
20.09853705195549 -6.906484687059558 4.543634818133761
20.172029054052885 -6.898305147102905 4.524764345500097
20.26725753669311 -6.871632917668196 4.499505314789904
20.357043966912904 -6.842994913034264 4.4734723020427545
20.437636138947873 -6.8083947549898785 4.449445019937938
20.52511963854596 -6.773443984828944 4.420466816069517
20.60743525728585 -6.751927365974151 4.389344496889667
20.683021979680262 -6.733294154502797 4.358545411830823
20.73558906263542 -6.733457765886515 4.3347411262616955
20.799862026665963 -6.7332904258347615 4.304293154378312
20.863943044320976 -6.737371440540855 4.271541609737383
20.927815520713708 -6.742139358418381 4.237826997120788
20.991323834296566 -6.745225460247255 4.203434832206179
21.054532500325124 -6.75000660244965 4.167752011724513
21.117198362376897 -6.753894401774131 4.131720914366381
21.1801136981371 -6.759304972135681 4.094100337017409
21.241903715651652 -6.761909123479871 4.056667071401451
21.30311819465083 -6.761777820026035 4.018706399675088
21.363886499974186 -6.756790516322869 3.982038103153405
21.424200430376345 -6.7503751564074985 3.9448249690549773
21.484076392878052 -6.743769334796761 3.907632464993611
21.541037895236983 -6.7361347606004145 3.8717696293104584
21.600972356563418 -6.719344550010467 3.8350281632112733
21.659422587670875 -6.702844447142972 3.7990634084575383
21.732385126270792 -6.6800464248426294 3.7540789303495767
21.773330633375735 -6.661394409625878 3.7304003013789515
21.82901912494551 -6.6320147563169805 3.698386419410358
21.883492772105313 -6.603342107605323 3.667309924318806
21.924602061090496 -6.58030685156751 3.644335439692192
21.992338649275418 -6.5265113665707855 3.6101173311457426
22.067395029830237 -6.472087890123808 3.571223142274315
22.150703646225168 -6.440507241093133 3.520963365523606
22.202537388636934 -6.4221662687179215 3.489389247924187
22.25688311273653 -6.404070360270222 3.4558173344351886
22.31391464557626 -6.386039549060065 3.4194684768841874
22.37080088714624 -6.367788446999473 3.3818181337755213
22.42729440507219 -6.350422310667776 3.343523279687126
22.48331058833554 -6.334024071629409 3.303558832494721
22.539152104212185 -6.317783882839445 3.262705440658813
22.59469108982013 -6.303176524870922 3.2206219551178403
22.649837585177032 -6.287477633587677 3.178184436152222
22.70422784823353 -6.27121384756493 3.1351042712807526
22.756379319073503 -6.252924692911002 3.092072658418738
22.811978326580537 -6.223660560803694 3.051456769985272
22.86530736665192 -6.193039277832538 3.011331219751293
22.91812735482921 -6.1628005746765595 2.970416081304446
22.970365385919592 -6.133993489769873 2.9283871210757155
23.029147559608894 -6.100306927563306 2.881171133972577
23.07400749265542 -6.071159943158722 2.84532707880574
23.125149252979234 -6.037243984085649 2.804127896570362
23.175810495217526 -6.005405897731071 2.761952377400947
23.225525175147986 -5.978397351187006 2.7175727819265028
23.274975439181624 -5.951448294562322 2.673245313060221
23.328430875848362 -5.922035553915851 2.6231519123193667
23.372387059863392 -5.90292695071545 2.5816812455646776
23.41827446721696 -5.8816836546497075 2.534829525756919
23.464548261544103 -5.862492986768686 2.487121459664472
23.510087473616807 -5.843775066076205 2.439383728548661
23.554418205897598 -5.824888226065969 2.3916972529482
23.598582100621464 -5.805305407016867 2.343372981381199
23.64117271908156 -5.786136712458742 2.2961537516305537
23.6914719276823 -5.763575556517331 2.239120205775956
23.72386115018955 -5.7533381477648575 2.199397438130836
23.755188963246894 -5.746149216191865 2.1586271693833314
23.801393875652188 -5.734145629424274 2.098362934700871
23.838943616978433 -5.723488818622993 2.0489652943367904
23.875080132171405 -5.715572153869889 1.9986982392736063
23.914405707097373 -5.7069681614578975 1.9422821269369681
23.94414907741372 -5.6983231693328324 1.8999519599421735
23.977323257415016 -5.686563638401523 1.8525679882864914
24.00948901294305 -5.672479994867253 1.8063829647913874
24.04249979965215 -5.6573412808679215 1.7586498420818177
24.084540402493523 -5.637478622628695 1.6971818467454245
24.115835018127086 -5.622346274663528 1.648415116429831
24.14589446756525 -5.607487557244642 1.600076555699216
24.172333508109332 -5.593352861388265 1.558452193954773
24.211911900665278 -5.568858077939055 1.4948972027470822
24.253980792725372 -5.532977056314831 1.4286604328771721
24.291618624082233 -5.498297587954292 1.3660286158860666
24.32188803072563 -5.472376873621062 1.3111808765228865
24.349871213322743 -5.450063814706853 1.2540790490658056
24.379409797915784 -5.425796191888164 1.1909530752313833
24.399780699867456 -5.405512526538782 1.1428568578257448
24.42158144266974 -5.3827236620322 1.0880248468851947
24.457738906395143 -5.3414016744056205 0.9846484950653336
24.478767198815994 -5.309027365396485 0.9189089097903542
24.494522289345248 -5.280746049930201 0.8647701682019209
24.508638568621002 -5.2528565993866465 0.8117859698584766
24.52137680950502 -5.224204279026772 0.7578876877356926
24.532082942936327 -5.193588833641339 0.710136623277795
24.545767223903113 -5.141841992560302 0.6551265672273399
24.556631074245367 -5.095254430574148 0.608858193510688
24.566402506419244 -5.047056712586134 0.5591896121777964
24.574363844586856 -5.002375210082725 0.5065878669181414
24.58089719221421 -4.961461100383145 0.4505999576501525
24.586506654849295 -4.920446805656022 0.39300635385711313
24.591176326225394 -4.878810125595823 0.33395467519452104
24.593972990532457 -4.847715328725542 0.28941364640730516
24.597499844963984 -4.795560591547204 0.2092012976259907
24.598775262557588 -4.767926284610866 0.16559380110885868
24.600059965945512 -4.740112235580673 0.12108858989000204
24.60140533180538 -4.7110263122564895 0.07454745436784904
24.60271921924477 -4.683214003677119 0.02687223568092456
24.603901407946758 -4.6573663829472665 -0.022514342055332648
24.605539999980678 -4.624367256044637 -0.08383615120629084
24.60680472798885 -4.59772514558175 -0.12711784835119833
24.607614967291973 -4.568865140250356 -0.18721419337780176
24.607960832869445 -4.545541001971488 -0.2419545848641791
24.608088051173816 -4.522175201529635 -0.29790403649290376
24.607737267319784 -4.501004313415525 -0.3497649393324158
24.606558815698 -4.481781552173722 -0.41024629811107705
24.603423053523287 -4.464735072296618 -0.49679967830942307
24.599292617761982 -4.4511620723954515 -0.580407514515894
24.59400413198142 -4.437128720254581 -0.6664547697007874
24.586967278036276 -4.423230501150169 -0.7578369907559557
24.580490838848974 -4.4221622974460875 -0.821392411901285
24.571440637258043 -4.419779204827833 -0.9077833933864561
24.565631413230058 -4.418154339509304 -0.9577932048906161
24.556326910056242 -4.41569717560872 -1.0267899443868025
24.54617552456066 -4.413110717945097 -1.0962301479482868
24.53540847588068 -4.4078846054430425 -1.1623150136127487
24.521850738214873 -4.378612356679524 -1.23646919167793
24.506235496981596 -4.343937293551363 -1.3158814182537082
24.492059995703407 -4.335647836937511 -1.3811446915007881
24.48077611400855 -4.333836343976703 -1.4302744345050273
24.468686424202303 -4.334563347652098 -1.4794273912833162
24.454263115804984 -4.335830657525275 -1.5355778226473271
24.44020652342116 -4.340133422697356 -1.5868395363789656
24.41317636018433 -4.334337369778879 -1.6785290118835974
24.397258886063433 -4.329353193792116 -1.7291114230283977
24.376894519835602 -4.321202058300516 -1.7919366335061504
24.345335648875576 -4.318593002786475 -1.8825278141659583
24.326148863364516 -4.320270049304423 -1.9329453197717301
24.29472011837681 -4.324114250258479 -2.013251733089546
24.264432935355053 -4.3377211864000085 -2.085100764287793
24.242852535100063 -4.34789872583792 -2.134370457919924
24.21161122915344 -4.365013858347041 -2.2015479116493477
24.172413902497055 -4.388773762466748 -2.280139831883081
24.143593922937548 -4.400465011003961 -2.3355315739955733
24.11302086130531 -4.420879101733664 -2.389706058299905
24.067217238773473 -4.466584466059736 -2.4641969620671746
24.032817531279072 -4.498202979092518 -2.517554770359374
24.005155328321955 -4.522167373414778 -2.5587705570348858
23.961824134193343 -4.55771078839704 -2.621924617517932
23.92279452745084 -4.582217162612777 -2.6772750234760627
23.892868462187387 -4.599052821960601 -2.719092203878376
23.856367980425105 -4.617212084191422 -2.770844048197616
23.80294702186915 -4.631568583413614 -2.8436834737666814
23.758520435569984 -4.648461808521574 -2.9030308826846327
23.6948347966729 -4.639552309480024 -2.9909476114141587
23.65648043790236 -4.637582369230341 -3.042658672922306
23.617590325221272 -4.63688410383395 -3.0945777981309512
23.581105154306314 -4.63873007616581 -3.1410867260334516
23.537066118669728 -4.637838184492029 -3.198841998119011
23.49391789867665 -4.638623374214433 -3.2540797582073453
23.448582680315724 -4.64385579249392 -3.3108493571278492
23.397730269443677 -4.64870996451436 -3.3742901448304616
23.357664892356837 -4.654087616158906 -3.42352598238808
23.310983156320255 -4.657010287613069 -3.4810013039416345
23.2583011425112 -4.655998008339276 -3.5456723658103777
23.220138638387454 -4.648460419187451 -3.5934516924880584
23.18853233611911 -4.6413026916444196 -3.6333508754469
23.1561320208154 -4.62707480173902 -3.6731803681409083
23.10552298060012 -4.604189471222217 -3.734907037174306
23.03668239997893 -4.5544726600653895 -3.822813056845618
22.981389594131393 -4.494458998670565 -3.8939558613201273
22.955787094571967 -4.463436505975702 -3.9268683588127944
22.930092081433614 -4.431415388786013 -3.960361439465044
22.894762700131956 -4.386965441293793 -4.006064089519393
22.839789635007342 -4.325480305266321 -4.075276876826427
22.783286780789034 -4.26455333078872 -4.146076704476851
22.73831548937325 -4.226084328778208 -4.200867293843688
22.701442233590534 -4.199413771881007 -4.2450582576883935
22.64884640330603 -4.164043858890977 -4.3073909313781495
22.591831730940285 -4.132289704688699 -4.373838371520721
22.555761682210033 -4.114156380683021 -4.415565847644437
22.520221371178017 -4.100538953407188 -4.45595360124927
22.484918229669354 -4.088909705373453 -4.495732175639822
22.449648827177818 -4.077402359480793 -4.535442227504764
22.414424531852227 -4.066898151142926 -4.574707345659
22.379199520025246 -4.0562840421753155 -4.613926169957601
22.343933170438056 -4.045506072520869 -4.653071154370241
22.308903586416484 -4.036580404173057 -4.6915715175966834
22.274342675969507 -4.030175834974374 -4.729271550894705
22.239776098984656 -4.023775800649474 -4.766806319468032
22.184950067152357 -4.013909530005662 -4.826016385454969
22.137770123584268 -4.013633770830154 -4.876073672416917
22.087826317570475 -4.01346864896124 -4.9287933184638835
22.03785891538027 -4.012195444814775 -4.981380580591794
21.98772877877297 -4.009195736979757 -5.033983042333476
21.937899855045657 -4.006213429410085 -5.086229865966294
21.892880528493556 -4.00131332561584 -5.133163815875555
21.838541451975246 -3.9946441690750163 -5.189690358783897
21.789272733238867 -3.989341310376158 -5.240442143231859
21.74040892328493 -3.983716578137191 -5.290800756027991
21.692139982444182 -3.978628739188782 -5.340276872929124
21.64446571481212 -3.9752803378782247 -5.388568458712839
21.597503071619776 -3.9723436310128744 -5.436048642764868
21.550787204057308 -3.9684818213464865 -5.483043821291664
21.505262646487083 -3.9643983887216763 -5.528929984097125
21.45908108733022 -3.9604794157817587 -5.5759430702722375
21.41328267938473 -3.9569764818435953 -5.618387451969342
21.36943950525582 -3.9527135562004627 -5.661781153582862
21.326260031310376 -3.9491140669282814 -5.704936183539802
21.270219236127083 -3.947324146721293 -5.759391742593079
21.22236990753415 -3.9460644686136845 -5.805643999231011
21.16584852432782 -3.9446981260579914 -5.858605759864662
21.126590059055076 -3.9438612002049034 -5.895246522126693
21.088303947359172 -3.9437726756665548 -5.930736917170904
21.03292053293385 -3.9446066034559024 -5.981226351953308
20.979872337201577 -3.9458810190076345 -6.029595947923841
20.929303559641788 -3.947550975806873 -6.074690122854269
20.853974603080196 -3.9519602510065095 -6.139584873871362
20.81363414110468 -3.952237533062398 -6.173633892630724
20.75482787803537 -3.95420462895909 -6.220656475714926
20.697636581785886 -3.957343207660365 -6.263800968809122
20.640740651899826 -3.958065538109457 -6.305191821226758
20.587912117286706 -3.9581360895582822 -6.3418710711087085
20.534820890804994 -3.9578009221621553 -6.375817296736261
20.48290517649032 -3.957207013754516 -6.407385615103078
20.43300312163216 -3.9533923805321063 -6.436647280912118
20.383722210217933 -3.9494007995261313 -6.463762655346667
20.337357659766127 -3.945506343453925 -6.487108015456166
20.282845866517604 -3.941628119725234 -6.511814831615525
20.22054189961799 -3.937161186674647 -6.536886488617289
20.15473267271164 -3.9325608402385708 -6.5606163733779805
20.092203987786114 -3.9315879934239923 -6.578275115407934
20.03131867262102 -3.930952816854189 -6.5926888591495585
19.97229074093657 -3.929774945228205 -6.6037447098987405
19.89620126390456 -3.929542177921695 -6.613757533171277
19.840613456848196 -3.9302272672062504 -6.618947751392711
19.786400788240336 -3.931586138061311 -6.622420028049789
19.732390121039558 -3.933244510364853 -6.622942977418112
19.678946481347822 -3.933684391303597 -6.624295773508968
19.625777645446895 -3.934222193118252 -6.625339738929279
19.572894251675386 -3.9355466933739507 -6.626390015449709
19.51970808214721 -3.9363443618462473 -6.628206172017577
19.467010848209014 -3.9378179610770214 -6.631118453484252
19.3859781654701 -3.948292295248663 -6.634961211523409
19.28937796664617 -3.982276038098318 -6.635895026741423
