72
5.575672750741024 3.374667263989907 23.72440670462505
5.388182441260708 3.381316882292542 23.803164213774036
5.195813686238299 3.3798150911303146 23.8701715389328
4.999376238817414 3.3709741008992564 23.924665306557056
4.799769716587544 3.3554231153154204 23.96601377012953
4.597798812658095 3.3344596752617646 23.993372298339395
4.394696736354289 3.307605999825298 24.006720158313087
4.191602786192435 3.2749468867740026 24.005923919215746
3.989629205279415 3.236765865208299 23.990826166556978
3.7899171101046716 3.1933693885968877 23.961335148297042
3.5936662325656035 3.1448813117418934 23.91752743285578
3.401857468103517 3.09240814997231 23.85930803905921
3.215588974472673 3.0365468668359723 23.78681355047666
3.0358546337243975 2.978284289124251 23.7001665235048
2.8635057546001383 2.9191634618186475 23.599412852749175
2.6993045608512394 2.8609885389699157 23.484618271644713
2.5446510249790673 2.802407193071727 23.35694363470774
2.3896911286071583 2.7383587442772788 23.205815784292614
2.2483540846408876 2.6736559170431127 23.041909416237427
2.120773554792525 2.6138110126017464 22.864603817240877
2.006765290133853 2.566462367398305 22.672589341375016
1.908886401014295 2.5220427944179162 22.470842875953906
1.8269397186321794 2.4814359762844376 22.260939168988767
1.7614679628941823 2.444022982502765 22.044586689263923
1.7130985338260056 2.40894722031548 21.823526607778334
1.6822060538786965 2.3748529359615125 21.599719992274654
1.6687376318619305 2.342810673079714 21.374260543924155
1.6726119155980634 2.313337691115101 21.148413883706787
1.6936835212603651 2.2867409465476234 20.92347372917556
1.7317566465684062 2.2630553769429396 20.70081226440146
1.7864490189904303 2.2427844609168925 20.481583642150074
1.8574115440475327 2.225959656402005 20.267076501599274
1.944408903545456 2.2119030336189427 20.0587931385423
2.0693031678349088 2.197846897240317 19.819472071365762
2.2158072184067907 2.1868891522433342 19.59329958899583
2.3825846649932214 2.179994550006259 19.381985790896373
2.5684395287939608 2.176698975093834 19.187656024379365
2.7725799120659533 2.1740342796982155 19.01332137953553
2.9935802429052587 2.170953405332228 18.861230047743884
3.230583116306913 2.162938993711589 18.73497329236057
3.483807328133959 2.1397044993442043 18.64055780831754
3.749303916195221 2.1067482554823043 18.577369093034495
4.022473012743747 2.071610058062311 18.543280048045954
4.299667979689774 2.0374043274732845 18.53745259933079
4.577418571383664 2.0065924816779575 18.558830263573302
4.8523398861790294 1.9817227025657278 18.605852385590087
5.1219399297788115 1.961584082922097 18.67826035981382
5.383643447236542 1.9460505088210533 18.775012612055527
5.6348766163215895 1.9361607770777356 18.89423055941432
5.943086787033396 1.9329424501325043 19.080129596618402
6.225671541862038 1.9404608701431902 19.297094616724895
6.479172384524013 1.9587428473026778 19.541057916594372
6.701001581153593 1.9860384543428902 19.808518007026372
6.888898563799669 2.021734992933699 20.095460255596702
7.040997206720196 2.069091525827681 20.396271166361707
7.154943345477253 2.131918446434267 20.70584108205732
7.226804317240214 2.226652983210763 21.014674353392266
7.25174049446491 2.2998227934096773 21.221248230665616
7.258463249807667 2.3765061754821613 21.42823368426725
7.246742059627858 2.45752054414388 21.634008337149183
7.216365442416482 2.5451480874933035 21.836532259463205
7.167446488121556 2.6362259713907603 22.035486269073964
7.100245502706791 2.7279723383864463 22.23026852974403
7.0151288816774 2.8186325946212456 22.41991321522042
6.912734470919567 2.9055366052078044 22.60367189444573
6.793636896158734 2.9883183479986544 22.78015664784627
6.658594129566387 3.066384826240883 22.948102709499544
6.5084333459635815 3.139121334545613 23.106277426017293
6.343904433087975 3.206881169828268 23.253170999185237
6.166606001282526 3.2669328428693296 23.38848127847498
5.978031675106186 3.3175103242348056 23.511708360929134
5.780174779830993 3.355349481151758 23.623162586405765
