351
-22.911884213611742 2.7410089681424057 8.179478568390085
-22.988415456130852 2.7153264479331667 8.195920304922968
-23.0405000303528 2.695459679439971 8.206747033151046
-23.101102960758745 2.6788896202833015 8.216616258711536
-23.157845392809925 2.6643995439033126 8.224803892211018
-23.21759549694314 2.639690444322738 8.235381154369591
-23.2615871924098 2.6137398575660638 8.245613693368377
-23.36916876039472 2.6033687764077906 8.251738679617866
-23.446948743289084 2.6000516076664018 8.254342388106807
-23.536263849408467 2.594240036303845 8.256158743837709
-23.6010669032954 2.5895788813786056 8.256527906299226
-23.6700130790809 2.5942333532318975 8.251636888042789
-23.757676507191476 2.614707068286291 8.241638822390083
-23.835434047578946 2.6858114867105187 8.214804116459621
-23.878830620073003 2.7307942551833233 8.196013256350255
-23.92005001050699 2.7719683436035694 8.178339514284644
-23.996905005359917 2.826939073513611 8.150614515072057
-24.068495788022226 2.884024448486693 8.120768403588468
-24.178580867930453 2.9402115086140115 8.08444439076905
-24.241261248214656 2.9788183077522157 8.05939904074322
-24.29081232348634 3.00736745698759 8.039968066613387
-24.373936693047483 3.0492064930574645 8.00812850673125
-24.40970574523728 3.0865537899488893 7.986383325652462
-24.454925938382214 3.134477010249593 7.956853688852267
-24.495153864465085 3.1853850897471507 7.926012003582373
-24.550481963696402 3.249605888644679 7.8849326690714205
-24.594257726848483 3.305770676446991 7.84909065331371
-24.649757498427224 3.3823737869838646 7.799798742005865
-24.679196068896378 3.444012171441049 7.761751166684774
-24.705794694257566 3.5219038512645944 7.715308293715819
-24.740249734291663 3.5640286039240023 7.686004639118141
-24.803284770638975 3.641638700068786 7.633051402017531
-24.842463502160854 3.6940308635188353 7.596423424389465
-24.874116878008007 3.7336569448319072 7.568533333320867
-24.905575330554964 3.76610703501663 7.544808271891921
-24.981747136841957 3.8162046419680062 7.499917112748972
-25.019619391613258 3.8560406355834176 7.469330570079747
-25.06111150538514 3.9032087341749873 7.4327420582850445
-25.130159910459586 3.972322126840537 7.375729062321079
-25.170374644031902 4.00439510274585 7.346188390534462
-25.22150412833621 4.05255151071893 7.304888009359101
-25.273313926097703 4.107315743435496 7.25622079830968
-25.32709203555355 4.159729867710016 7.207753369929642
-25.378081842931998 4.201341153823664 7.16552707538163
-25.427336303983594 4.23756721773289 7.124417660589297
-25.496159915969265 4.302096542974381 7.058725650240375
-25.555135382540943 4.342640105063403 7.008447605060851
-25.606376711295827 4.378025025920019 6.962664280598932
-25.63785422267122 4.41278244446117 6.92593598407345
-25.673388603128778 4.446084333224293 6.887988564384572
-25.708824347427647 4.480118489127506 6.848247230530203
-25.746229696781434 4.518580023085834 6.803740467213017
-25.787827581536586 4.560165894681029 6.753550712141734
-25.82509662773097 4.603566984652938 6.703801629768516
-25.861753402331612 4.6386197343296995 6.658991451365769
-25.898483246877692 4.671956698864367 6.610581839675652
-25.965245912164843 4.728810810073002 6.522174869392523
-26.00763298110633 4.763497053252923 6.463426721095044
-26.04281243384793 4.796286595187066 6.406305283490613
-26.081930360113137 4.828663819589606 6.340326732137069
-26.123403074250756 4.853599091733848 6.268145787723628
-26.17381576006619 4.851639794547067 6.197420963902979
-26.197744990082196 4.863778778981258 6.143653508216052
-26.230926889805378 4.852318098096125 6.091191848487331
-26.25064928445037 4.855241015254853 6.041379029021617
-26.263019812351693 4.878462781287524 5.972574347462266
-26.29535913932842 4.859742144230188 5.895170298001067
-26.325265268896402 4.831702403522485 5.828131374667831
-26.358827892016343 4.790991965698829 5.750108498734551
-26.396531285725562 4.73173378099381 5.675654589906012
-26.42851302080116 4.674569164650185 5.612035904451831
-26.443163967812524 4.647520025349554 5.5652674077249955
-26.46252681648359 4.612808151922023 5.49865652701962
-26.473399402385088 4.5902910722591095 5.454559405516598
-26.4898656231738 4.548108874319867 5.369161890707703
-26.49702773495741 4.523640163756854 5.319616950550561
-26.504740769026082 4.489406101521457 5.257276817795692
-26.511796891857298 4.4550490639501295 5.204375222553666
-26.51736250624785 4.409990318913822 5.134392685154821
-26.520561691058116 4.3782320689954375 5.089808674572157
-26.524078967434633 4.330906701613914 5.030571324354999
-26.525241465077936 4.289078335743378 4.979145011872743
-26.528489183451185 4.237158807213216 4.928184818845507
-26.53088112558269 4.1830247735491675 4.878496025378761
-26.530074320115514 4.13223153202599 4.827109718812476
-26.52404438302948 4.064045803429931 4.76248288931623
-26.514365994760777 3.995280980568873 4.6958230605782765
-26.51215498776842 3.946407886718854 4.657998658297939
-26.50875326159246 3.8975129778297375 4.620155886324747
-26.50145118153528 3.8461073191971047 4.577745525986066
-26.48762921570857 3.8062251718318953 4.53218834784913
-26.46159859186326 3.750717518514087 4.465365361816909
-26.432911576512623 3.719249597910712 4.408168840741818
-26.410354750322558 3.672786843371165 4.35411519134547
-26.38402197179363 3.6313890793147476 4.299527877220301
-26.363242427687368 3.597425732204384 4.256644953025641
-26.34374708816861 3.569075045866487 4.2198960038926865
-26.294815693274725 3.539156077306511 4.146358384861713
-26.25027366598746 3.5200711537698255 4.085613868939902
-26.206498064465194 3.5032846731713776 4.028698000709407
-26.165862650987915 3.4936287743316456 3.9797613545243227
-26.110701747288047 3.479879057938503 3.9148788098167344
-26.063480663688768 3.4748927057945385 3.8644405804100117
-26.027299875066117 3.4695558735104846 3.826007165997776
-25.978200962867078 3.4637609641021485 3.775812351640684
-25.90637575177757 3.4582162175888125 3.707182027534727
-25.827431376565738 3.453574892043942 3.636773780919018
-25.77201492151104 3.455056296282192 3.5909893878201506
-25.716768644244194 3.4572613844405926 3.5481692521965504
-25.659484947150542 3.4627280522541963 3.5077437434527
-25.617497391326992 3.4684096828531055 3.4799678054444545
-25.530443898865865 3.48326457984439 3.428488384436748
-25.46898949714768 3.488805263362966 3.3918651865688707
-25.4148247719764 3.4912063759473395 3.3613232766073224
-25.338109992241606 3.4915160282937596 3.318412783107761
-25.251964731831297 3.489345067485036 3.271682195989121
-25.199281571814033 3.4847206421739743 3.243751474054145
-25.149080711864553 3.4793580752867697 3.2175048769888015
-25.098457746579996 3.47220066824662 3.1917414633095245
-25.047367476407647 3.4640984865784596 3.165817538658744
-24.97506316902933 3.456462833507168 3.133126147449797
-24.862573658000326 3.4670842543146123 3.0920187821151117
-24.794948621726853 3.476599385515183 3.0693319179794374
-24.708522096886956 3.489275918882765 3.0414656401754003
-24.614183212351293 3.5045974219653364 3.013289647524333
-24.55806900263518 3.5114546690179647 2.9955312290669784
-24.494863618204917 3.5160314729406283 2.9750331474572445
-24.40432955344803 3.522864755497705 2.945687874235584
-24.352473880651235 3.5211177007813093 2.9270967474088447
-24.277259778994374 3.5146254359705114 2.898572336687815
-24.20366162713153 3.5094855510328977 2.8715120291028304
-24.15148068612208 3.5072565725745233 2.8525884822005922
-24.097643985016035 3.505146301351624 2.8331406894764752
-24.042645545353402 3.5036035557499132 2.8132345102011174
-23.98619362131264 3.501318129954169 2.79259031479606
-23.918197351520874 3.496099412691929 2.7666315265118913
-23.86861522804216 3.491670962613855 2.7474997852327983
-23.805708083826364 3.487635184201999 2.7235359731368414
-23.71789129947984 3.4835336875442207 2.691008174538709
-23.65818064283073 3.4808279174255206 2.669023011844085
-23.602559306435495 3.4781521753757967 2.6482277359702087
-23.542441427137792 3.471038163020238 2.624511256827283
-23.482561944833748 3.4599318835279402 2.5994072278427165
-23.422773422776554 3.4477140985182957 2.574470553179519
-23.36177105866733 3.4350181094731362 2.548782978399558
-23.300849439444352 3.420705950510587 2.5235049327720596
-23.23750818313202 3.405817538101917 2.4956017864503925
-23.173684421605465 3.3923055588268958 2.468899766543786
-23.10952777978649 3.3786403932946008 2.442070597399643
-23.043758040717293 3.3641981634711597 2.414443513477165
-22.97786450075012 3.349168854237081 2.3867269363677632
-22.93696537135582 3.339896603669207 2.3694498628263077
-22.889246351015593 3.329077779660907 2.3492918932859057
-22.79893123124503 3.3088561743944207 2.3114821210321423
-22.732758191988925 3.294010384927516 2.284024113780135
-22.663980869401048 3.278639312245186 2.2556740536757687
-22.5959094891167 3.2627924848646015 2.227518754312788
-22.55056064912441 3.251725047306898 2.2084820332791057
-22.50524148796993 3.240326971396343 2.1896221931512585
-22.459919284416433 3.2288354403084534 2.1706866509778946
-22.414654261003424 3.217102027053502 2.1517558975053737
-22.369485828187734 3.205042725042096 2.132835585596709
-22.324328598068742 3.193181536337287 2.114014388892387
-22.27929095400226 3.181124263168075 2.0952573853541248
-22.21200748385392 3.1629144407888767 2.0671727020697652
-22.144907334664413 3.1447538133097077 2.039167134741602
-22.07816318214111 3.127463932720986 2.0120824208474657
-22.02644691019801 3.114066777514991 1.991096259581516
-21.958185855595385 3.093681547747209 1.9629340313382597
-21.88986872203449 3.0681694699130664 1.9337778092345443
-21.826136781973347 3.04650787445622 1.9072237145270536
-21.762071206702363 3.0285486453006754 1.8810541498088709
-21.699686256298598 3.0111033415328214 1.8567019018916122
-21.63813822777414 2.9922043292618334 1.8319520883492002
-21.577345149697095 2.9738570546106744 1.807057306183692
-21.517972383968985 2.9532273161965716 1.7846272304152504
-21.46001700991444 2.9334254689988133 1.7614084518338364
-21.40721334681432 2.913363029083768 1.7403906264841034
-21.347652881323352 2.893301629079725 1.7175596869239116
-21.293262203848403 2.875684414959754 1.696974325396662
-21.22233372254549 2.855551062192052 1.6712164990801313
-21.147891538355147 2.8361521777255754 1.6446513593676646
-21.06463992367589 2.813398735724156 1.6163716748565182
-20.99558016905308 2.783309901598907 1.5922626848314057
-20.95336966514889 2.757217959843596 1.5766567840012602
-20.895622265113225 2.7228147278663033 1.5567004757470229
-20.839958141524555 2.690713792605281 1.538439094797503
-20.785253289238472 2.662898302911398 1.5216024480509516
-20.732211379483186 2.637358381700913 1.506253578373887
-20.68056189253929 2.612884480980622 1.4919822702799448
-20.63062065300563 2.5894401112542007 1.4790502066603661
-20.58203648855416 2.5667751697402097 1.4669250056894683
-20.535013430101 2.5451484357904213 1.456005411737756
-20.48951148280802 2.52578224596864 1.4466534981868673
-20.42186238200169 2.498416961483495 1.4325966839146407
-20.35972542993726 2.473929034947892 1.4210016376378967
-20.297487285145596 2.448893776938116 1.4110442152340958
-20.238419237556503 2.427924283051445 1.4029700715099205
-20.180758930402753 2.4109386743388437 1.3953059348909216
-20.12539462443454 2.3934584359932427 1.3889110703901948
-20.054872659687046 2.36893815476517 1.3821280372731972
-19.998671291555254 2.3469659424214524 1.3777701531728739
-19.94325882959194 2.32530176428066 1.3734724619009917
-19.869379373873798 2.3056304286563027 1.3688271780017982
-19.785915727847108 2.2841513778054447 1.363897158587306
-19.710315386130546 2.2601202773299973 1.3602313572008518
-19.651869151210686 2.239992295086656 1.3572956219807937
-19.597472465259656 2.2223034891469777 1.3541347051478088
-19.504462612371448 2.2044540445177003 1.3480833059380082
-19.386621083743357 2.195874361222917 1.341450181389639
-19.29313126589916 2.1872614164588238 1.3397360507692375
-19.23532378781647 2.20221943194283 1.3414877980361695
-19.154587233362413 2.202200560270389 1.3521683298037215
-19.076117614766645 2.187879286762771 1.3727162229193008
-18.975756498516695 2.1748135619707454 1.4141225482965942
-18.870781173891736 2.19031896890645 1.472511648976468
-18.772833367661562 2.1878184272506354 1.5401272982344096
-18.690109199105112 2.1882688574589975 1.6037515339328805
-18.641670147016896 2.1732054142477835 1.6452151596620745
-18.601749355541056 2.1579464559077937 1.6808357976299662
-18.543271463760423 2.1369239090019154 1.7360746156612699
-18.49313617472295 2.128099379757676 1.7866126835761902
-18.430449514685403 2.114316365237056 1.853452735364197
-18.36801660813198 2.112967497948396 1.929354487791353
-18.324246860173986 2.109353326551482 1.986866064328388
-18.28321923306034 2.1147992002270173 2.0464364585369044
-18.244618504277266 2.1187909038894417 2.108032604006583
-18.208808525573613 2.1231421664147185 2.172473760333852
-18.174543475916064 2.125043344210852 2.2392616597311754
-18.15281681319466 2.1233693467003127 2.285942526318757
-18.131608226332844 2.11954942012659 2.3340383880267552
-18.111170066541433 2.1186713364021297 2.385122971396158
-18.07290589075178 2.133375406654691 2.4933260142383213
-18.054251717166412 2.1379176085988125 2.546749777547605
-18.034605776390773 2.140129520260168 2.6042546855372786
-18.014176553826672 2.145076537148125 2.668380813117029
-17.99655341096146 2.143241689494348 2.723732675575624
-17.975195485707566 2.1350207174935485 2.7886007759655227
-17.956382488811393 2.127213646674812 2.8512195403173033
-17.93282519985867 2.116973373749079 2.9379891180585522
-17.909934073664797 2.109829977969136 3.032314137556284
-17.894955346697287 2.1083502306848856 3.1058604414730295
-17.87849601440653 2.102593979767248 3.199711587619718
-17.867292467275988 2.1025134827755507 3.2810498267764068
-17.859867918235782 2.1040714951063664 3.3511695243567337
-17.854313647436864 2.1050441835837668 3.4204451431595517
-17.8503375301013 2.1039343477027628 3.4940443281396583
-17.8467580606545 2.1022799229246485 3.5903189631191434
-17.84666372105144 2.1020884585218433 3.6666067682389505
-17.848445249869215 2.1038333155830613 3.717098613973598
-17.85116961604123 2.1063071710483645 3.7676748565442484
-17.85649441184103 2.1081938828351263 3.8377148098047718
-17.86432007283682 2.100528374339357 3.9216028710472486
-17.875438409623204 2.08508606082315 4.0139273852269115
-17.88063516920643 2.080094397856882 4.048731264865208
-17.891537449983264 2.056679919479461 4.122166444607133
-17.901175129160357 2.035588937102417 4.182837191040566
-17.911307648407792 2.0138034999548258 4.240967114879999
-17.9279697527592 1.9724688228812899 4.331612611065968
-17.944427506078327 1.9320880829250862 4.419465129602899
-17.956175534955463 1.9094285784402678 4.471377304852038
-17.977592629775298 1.8850653104086903 4.568956715102192
-17.993413324096238 1.8643358374991235 4.636933725754948
-18.017220220049165 1.835924474171803 4.7297409498275504
-18.030336743480355 1.8264089419694103 4.778026457873948
-18.047096195684134 1.8125099255914 4.839774568664997
-18.070197467509956 1.798681352253459 4.9209272519867095
-18.088928148926364 1.7860893361295127 4.984642233748935
-18.11196627533918 1.7720168285976752 5.057521895059988
-18.13605438290627 1.7588386645298208 5.132694305225212
-18.162408398595815 1.7624646264093964 5.208724138099375
-18.19243697058661 1.7514303276952226 5.29140589696712
-18.21912607517787 1.785424606346465 5.362813657788545
-18.263606573864386 1.823294792227221 5.47375746971516
-18.288509311788175 1.8428154435682518 5.533788753758991
-18.30786399426484 1.8614632336855323 5.578668589839751
-18.338433219217748 1.8809307398806498 5.64560761085091
-18.367649945387654 1.9046889846166644 5.709550420306283
-18.402687541305735 1.9255883430984704 5.7823788467470445
-18.451526791821582 1.9183243827530183 5.878522560531512
-18.478343464432246 1.9159645858501944 5.926444916499745
-18.506705216337505 1.907916909086771 5.976807104809082
-18.534367501974657 1.888419526438232 6.0211801466387
-18.560671716246485 1.8758438851878005 6.063420280317945
-18.598760847146014 1.8543276811231082 6.1194262825765255
-18.64611617931444 1.8249451178573621 6.184669594548589
-18.682782912385814 1.8055465117236174 6.233335545127155
-18.72437962928957 1.7869332128989792 6.285740368896424
-18.77306954989279 1.7591436456711524 6.341964944424135
-18.828013546412162 1.7292634868031915 6.4026940223576245
-18.87969164782583 1.7315390956145262 6.460711825310667
-18.91686886243941 1.7327411051468977 6.5005509295853185
-18.963760906278363 1.7258782276116285 6.546459387152015
-19.03824707702995 1.7174116126276249 6.616241021649965
-19.110284850694107 1.7207536072460674 6.681595575356291
-19.164907598311704 1.7168758123810197 6.725799710905755
-19.22570041157182 1.7147189401624385 6.773365866604368
-19.28172616369643 1.6840243553226917 6.812468805133427
-19.340204511470336 1.6929143004034377 6.8546846175367895
-19.410764048729362 1.724748934208003 6.905777874642694
-19.508789684316913 1.7362876210578668 6.9694025797549175
-19.596281310215236 1.7549745973408464 7.02340948518452
-19.656305735901114 1.7685345474909302 7.058772818735227
-19.705929961844895 1.7793226745966275 7.087283530206807
-19.7819639949281 1.7979241749439727 7.129897342807825
-19.82505750927925 1.8096275956158778 7.15319517383275
-19.86755392758643 1.825769973114037 7.176122060930212
-19.909510819790214 1.8455796749845477 7.198541623279811
-19.969231851915303 1.8782259493069726 7.230511304181191
-20.029625107088684 1.9014499735476522 7.2606169693322125
-20.089746500204303 1.9415344652028295 7.290772843696831
-20.136766614890774 1.9755775016896755 7.313819155626153
-20.239692772589976 2.0140705231802385 7.360784222850268
-20.307321685954854 2.0601113059314202 7.390494158677169
-20.356321540934417 2.0951165820173654 7.411499499903512
-20.413043300842357 2.130219791678719 7.434876003666724
-20.478867701410657 2.1730717119653806 7.462431517778138
-20.571765816804223 2.2273619842762895 7.498065043438507
-20.628645417315592 2.2613829993560643 7.520262004837188
-20.69145267691256 2.3023089416286493 7.542409001307409
-20.74523284744946 2.3305869570693294 7.562065270885266
-20.827889124262015 2.370964183968606 7.591614105035597
-20.9138540042188 2.4127618298567968 7.621848093201291
-20.971934832559477 2.4415251853104247 7.64127639156028
-21.040065054726753 2.47765466980573 7.663828566630783
-21.100508919997544 2.508805714556894 7.683377833967236
-21.146755573680956 2.531372561009794 7.698775347436135
-21.212115338056076 2.560773041085455 7.718784313872132
-21.280320019082488 2.5880600127767655 7.740181940113744
-21.32558343028578 2.60516088787633 7.754285687623503
-21.371149109959063 2.6214213781214872 7.768408155043059
-21.45288971088555 2.649433211270202 7.793202193836815
-21.521641804379836 2.6818491619481226 7.812464079758125
-21.56609728716958 2.7031772902347035 7.824513010639698
-21.60926568137187 2.728340188017341 7.835230025057203
-21.650822870570973 2.760797184708791 7.844999955477715
-21.732784115975942 2.7861675909756847 7.866235907126257
-21.833167421217173 2.800373537196321 7.896653038831629
-21.9008073244073 2.8086427128112903 7.916076432304309
-21.969166546820393 2.816812212463287 7.935506556409162
-22.036038356360336 2.8163293980129684 7.955745864174067
-22.113754428880338 2.823910476938305 7.977329856915923
-22.17844623577494 2.830805376154655 7.993206319047567
-22.286914127080557 2.8385185725632707 8.022013837970146
-22.356965516578896 2.835855310343691 8.04156781550483
-22.421471962957092 2.8299256542858218 8.059175162452096
-22.498772069576443 2.8200240243111874 8.080644395195119
-22.560664383457084 2.8062338310154433 8.098411849768691
-22.63852409434899 2.7851323854655523 8.120136928881202
-22.743849353537332 2.7663923712490948 8.145748383270579
-22.844082331381202 2.7510993216747894 8.167224961430453
