271
16.3077949728848 -0.4077427563243541 12.352975334793413
16.269536227397705 -0.4296740235320047 12.312902228262924
16.2148266027346 -0.46007858116597156 12.258443949763567
16.156887742962525 -0.4837735606692508 12.201384741649054
16.091963054473098 -0.5095599825739567 12.143125601634903
16.002998615617194 -0.544205132438079 12.079523114347737
15.95490161761519 -0.5635264682050729 12.050428697276313
15.907724734862045 -0.5765290473662192 12.0239107557123
15.81681010572697 -0.5977482092325115 11.974351234998807
15.723366800050067 -0.6079885529153177 11.91897667892054
15.674336454574558 -0.6104132091927905 11.888139025785994
15.623664636388037 -0.6138551953341063 11.855889954688001
15.557305719862436 -0.6181870852638913 11.814249822896866
15.468145119036018 -0.62394914843096 11.758983251756035
15.38245787052939 -0.6252478766459739 11.710178759932873
15.338159332777877 -0.6340519298464375 11.688140950178319
15.284729377226677 -0.6435464725581133 11.663360998436865
15.205206152617533 -0.6610063325054862 11.630802559033
15.145535508526997 -0.6916249826571899 11.614326286345396
15.044701650761116 -0.6842359895426138 11.57301408287562
14.968284428819205 -0.6781352722796692 11.545785345720983
14.88583949450904 -0.6769919549959424 11.524149571305305
14.804108487536292 -0.6664258707005155 11.501467029373622
14.682839401345557 -0.6664628123028056 11.476152930410525
14.612027005995847 -0.6818208705269497 11.467443778257136
14.544160252670059 -0.6797508510065247 11.454630827111462
14.48186834486991 -0.6704941515634557 11.440256186615493
14.388475265414575 -0.6440319177497278 11.417444761405264
14.333102965404276 -0.6322433264038008 11.406194177259216
14.253469311930179 -0.6188290374630134 11.392994870006662
14.171736482152298 -0.6072814684621837 11.381520421673969
14.07230426501139 -0.612417461166415 11.373983916815803
13.999831674280067 -0.6179848487083688 11.370160868405307
13.910709593230738 -0.6289401810372572 11.367985589792951
13.855658840985257 -0.6332489930397607 11.367476750954232
13.774401885841865 -0.6378940666582906 11.367577028824776
13.71427054395681 -0.6368006773950188 11.368946962346113
13.659464638682106 -0.6339603000924936 11.371612769284393
13.549530692109437 -0.6192677300570844 11.382464852000005
13.482416970186835 -0.6130063154280276 11.393343151597005
13.392320505406639 -0.5774896995901431 11.41386077527353
13.341628066943644 -0.565655485492746 11.429107269505742
13.263751574407447 -0.5554969692444929 11.456347463119485
13.19353367724527 -0.5480888420743888 11.485729867051917
13.140585625158817 -0.5421407102187223 11.508443017750217
13.085558365283601 -0.5378638893634227 11.535215596842354
12.97466133787265 -0.525780156918251 11.59485574376803
12.89309976656833 -0.5218198980045701 11.643887294353325
12.827111857371147 -0.49928597537169095 11.686657279388168
12.768221975579825 -0.4981704047117006 11.726567021581591
12.70817495867562 -0.4902571326042109 11.768619777112049
12.654943688583598 -0.481917123292003 11.809056384683728
12.586325872611003 -0.4646490578284941 11.862577702372722
12.514699187274902 -0.452711673118563 11.920760270203147
12.460738772096954 -0.45560148914859955 11.965496420202449
12.417556744980205 -0.45828041074718584 12.004228633219935
12.34725808395695 -0.4610736623557541 12.067081385327015
12.309582432098548 -0.45865358570925086 12.101068669186454
12.250279652691313 -0.4508848916298507 12.158960532222952
12.19918677893649 -0.4505621582234447 12.212035818679698
12.151608826799151 -0.45382114829367604 12.26468487444663
12.078755448619848 -0.4590422329355195 12.354941915059797
12.022532878713365 -0.46084029422031847 12.42958170598337
11.989116297799168 -0.46212832868477394 12.479022990081749
11.934401006795206 -0.45375217098921183 12.565459073460847
11.893785026389365 -0.4322869038054291 12.63433593270636
11.860192579916324 -0.4163893356511066 12.69639807503933
11.814570264902525 -0.41497588107824335 12.781639161493345
11.784870082171642 -0.4112592984407981 12.840518486282761
11.763017948223622 -0.40789049028026225 12.88582736987501
11.736953596069526 -0.40230977903448606 12.939347881839634
11.710169014371486 -0.39415357879317936 12.996160984517672
11.685422472248367 -0.3801891740263512 13.049146267948768
11.653655065410753 -0.3760636121028238 13.117720277635456
11.622189155890958 -0.36821095102377877 13.184966715766059
11.598697095396316 -0.35780019303411903 13.237141788094853
11.571549224359805 -0.3653680025355843 13.299496670919623
11.540035421683053 -0.3633490617224351 13.373509311790478
11.512826288756413 -0.3595487306459195 13.439095059403378
11.490130600246658 -0.35888655134243885 13.495580597207748
11.464144980307934 -0.33613835166547057 13.570812502200635
11.438516614891494 -0.33415942322861847 13.642625111619068
11.412913080147186 -0.31422152413220905 13.724360243750311
11.39345032846726 -0.29811807274914726 13.791979512648712
11.382392122973702 -0.2674287583745749 13.844324954419278
11.37172502266705 -0.23144663832901502 13.902693973298575
11.366064035152869 -0.1833195299385877 13.957913313309515
11.362061485833314 -0.14671670938227743 14.00876391710348
11.357343157456175 -0.09143143893891947 14.092062850748611
11.352375475695295 -0.062113809595192304 14.15924684794523
11.343866466961318 -0.038180074932770314 14.230449927345934
11.337861999472468 -0.020864867448697755 14.279463989867903
11.329477926007954 0.00811382820097828 14.354039347758764
11.339949230840007 0.012818887421128355 14.427109237596188
11.360167527768168 -0.005488457539594815 14.502214331586078
11.384470126463784 0.02010143042056667 14.537721895001997
11.378696842169083 0.03811469895120334 14.595485008619818
11.371029120407904 0.058595972799952545 14.664020731808375
11.342127265223896 0.13354490855695245 14.724906411216647
11.371027420728213 0.1880685657733312 14.803075051748767
11.396237172188451 0.21835911316300072 14.859789818969471
11.418165731526086 0.23890475268728784 14.901883600514974
11.44440269222353 0.2574395853188345 14.947451003651203
11.48100067558502 0.2806893473844796 15.002895494726012
11.524810329780998 0.30358684223959864 15.060706275861111
11.586416954225783 0.32173521394118554 15.133277591715949
11.632952742001178 0.32955152903497664 15.18338332287475
11.691230147939274 0.3402366631238878 15.24061648340033
11.75107279371964 0.3458424602957888 15.294750796904633
11.79157779762087 0.35095269296115417 15.33217924452482
11.866579509463211 0.3686655945674526 15.397036803310233
11.91444193637463 0.36058231200389335 15.437359834388435
11.961785212392956 0.3568063660315617 15.476997507506116
12.01362382971508 0.3519182433294943 15.519732224360823
12.085008569852798 0.34452860558480713 15.577475524238004
12.127245224908028 0.3415286670131841 15.610655761076774
12.19436114394564 0.3331820338085749 15.665107826636014
12.250526745511298 0.3350608725909159 15.70760578444144
12.29531573549635 0.33450462478583676 15.742136172911572
12.33696490329267 0.3351803284256403 15.774016914410186
12.394009768647564 0.340415581566774 15.817337575909281
12.453515769671585 0.36130645541452955 15.861827015028737
12.508902125687584 0.3914842017992419 15.903064984202732
12.558734231021843 0.40916207719721287 15.940492678732475
12.619553329029857 0.4221968487189369 15.987362606365185
12.66534614383373 0.43007479038562435 16.022800664254174
12.726138464117277 0.4284518730447684 16.070186612754156
12.768391123232623 0.42119066010474304 16.103900500297815
12.83264112072106 0.4092829904240092 16.155366430427613
12.888541723856875 0.4042889298646988 16.201203071148107
12.958769749779414 0.4074889110596511 16.260094317139885
13.031461380823282 0.4335148243555751 16.328431570236322
13.080404053604612 0.4843091114588005 16.390443282048093
13.074047015640474 0.552092375345953 16.413484540439942
13.106998255292995 0.6244287181291885 16.43717930287791
13.133548435424252 0.6835838764241422 16.458649729417967
13.104420761253436 0.77832872362421 16.461976130406445
13.107530967487651 0.8417091369512071 16.49222858112246
13.117756211425574 0.9044157218020721 16.53902285267362
13.140215722395444 0.9586317530963808 16.59040274631908
13.175545875892396 1.016687451097312 16.628874088314834
13.21558181747831 1.0517631721988496 16.660885008240218
13.274797516860598 1.0939761905992236 16.69871175335293
13.340465198872586 1.130683963004897 16.735386789123723
13.411450986789395 1.1627493580553545 16.77237215766211
13.485444382823374 1.203499896832287 16.802998723961867
13.541904192657336 1.2375611028358366 16.822095779213395
13.613964116355158 1.2786397052936853 16.847028836434756
13.714505526846219 1.3201823676641058 16.887537168421826
13.801756331136168 1.3626273210863729 16.91841833677231
13.846132416030187 1.392727858365412 16.929217283170342
13.910310177895079 1.408751174129487 16.95862228716448
13.994259535057523 1.4103766049820146 17.005650355229275
14.044037700205447 1.419502341611873 17.026763831306365
14.133335701306757 1.4638035713909345 17.055580454123515
14.230417549968738 1.5008500261601374 17.089010063603013
14.282361197185004 1.5137839198848373 17.109337765757967
14.334769120420406 1.5291011806296102 17.127348552901946
14.412995906223289 1.5205945002586367 17.165065189290843
14.469896914553928 1.5001996502724357 17.1954716740711
14.514547027400221 1.4834044421106864 17.217300455155996
14.576436936969076 1.4713988439256434 17.241516371942165
14.649916405691195 1.4950741392270301 17.25480433368412
14.701983237886262 1.5210356011873611 17.25716532485169
14.738768166129109 1.5715777152638473 17.250304978921914
14.755808169261835 1.6336227541237256 17.23137618229174
14.768651305930005 1.7023215008693957 17.211083341735755
14.79338354764757 1.7841036453472143 17.185848116010884
14.86042359018221 1.8803433188929835 17.15107253250628
14.940932686872118 1.9414312374703813 17.121792186559617
14.996438221177865 1.9720906865503731 17.10178008881428
15.051601536996927 2.004617351972025 17.079428022378885
15.09627591212188 2.03136105992199 17.05970470621149
15.138083633638567 2.053475020525974 17.041280625915242
15.189793381894876 2.0820296611592473 17.01667213821416
15.254951022139776 2.123399033254962 16.98124707738447
15.317982592986034 2.1621706094980264 16.945736028340587
15.401258152631732 2.1938879308257637 16.906205251361158
15.468478024260076 2.2243508566523773 16.870143626852975
15.517845666894855 2.247927998843721 16.841107347877294
15.601521587685582 2.2810762011159844 16.792864320419103
15.638400510516018 2.297360418679203 16.769610648983427
15.672884920999186 2.3073819068542663 16.750034836410148
15.7281666570846 2.3261156869772317 16.715325116231487
15.786814839430248 2.3622261587016253 16.665919376862853
15.83602836881039 2.3893693821393396 16.622909140082925
15.888874801758856 2.4123123284683836 16.579485341894344
15.940826876752011 2.433983472640177 16.533526080185254
15.980642788910105 2.45051922587365 16.49642386423334
16.033911355963706 2.477408808123727 16.43676104365572
16.083498634457587 2.523221406538245 16.35297694887989
16.1138742025085 2.554801018569188 16.292995632237186
16.163259006436366 2.5823788746743026 16.217909531699235
16.231703478951506 2.595900992142688 16.1359967834263
16.295030655707684 2.618648322287093 16.046320187448426
16.329509369802313 2.62330537417179 16.007898084131725
16.41709485158682 2.624591290494418 15.927892220898567
16.460347862827877 2.650372400867228 15.851057268249033
16.49543914224757 2.6535085084943923 15.814083962195017
16.553320373792054 2.659933999355848 15.750241645683385
16.602670941934154 2.664929915864151 15.694878412350047
16.64480320010642 2.6748251340558995 15.638422886530623
16.68583896246699 2.67820277042042 15.590322391678747
16.745883641641882 2.6712295495251275 15.534763884432465
16.809453863603856 2.6608512983555523 15.476180906733266
16.84957599146465 2.654781355997969 15.435614168599944
16.929805889388156 2.641541016105809 15.347851223882106
16.992005025284325 2.6195445401100037 15.288881294399697
17.037411454813352 2.6052066421773517 15.23689901863802
17.075483302403647 2.5918792115826164 15.187860910660458
17.10683824438481 2.5807918977622104 15.143745470246252
17.148053875788477 2.55376561444872 15.0912655884874
17.180268579146784 2.531939294581854 15.040950111482655
17.213724982955476 2.5020050456696707 14.985695726532352
17.238210051093432 2.4740816401400134 14.943885456294733
17.25933717611806 2.4463074428278975 14.905689136244714
17.29916959155462 2.382637600768137 14.838156638585826
17.32638790019135 2.3309619266780266 14.78668846113828
17.3478705081759 2.285430597847648 14.739960208397697
17.370862475496263 2.2310767400022473 14.67951159961217
17.387375811009548 2.1868462015561447 14.642914781820135
17.410557725599183 2.1151207773194662 14.578008118740861
17.42998058059826 2.048987974662077 14.526471663892618
17.445455076849512 1.9902982428299434 14.486056869871948
17.458035005422165 1.9418157144131531 14.453464046022184
17.469295071048364 1.8897918375098643 14.421794291584114
17.47960871288369 1.8393869503997262 14.382060560799303
17.489812930153974 1.7843523975461832 14.333758226447909
17.501457479703877 1.7153477832233208 14.250499099191455
17.509472517847684 1.6589316056582937 14.202953643294816
17.51593578855258 1.610183304368233 14.165821296550707
17.52356202502888 1.5443332821231373 14.102364837175308
17.52596546455531 1.4957843097204941 14.019441070334992
17.52865456453421 1.4405929413227927 13.935720749377605
17.530668612821792 1.346471907636401 13.83128122291367
17.52863022194514 1.2913141421489551 13.777564991837021
17.5260659220704 1.2340482278710843 13.738105571220178
17.520403778990374 1.1941268565721312 13.70444482008702
17.507932638775213 1.1489633751690151 13.657100171230795
17.489148802439296 1.1125853796919194 13.604366628137033
17.461086120940575 1.0632745546644444 13.539199686602064
17.43278735772444 1.0060333245030915 13.483203281925885
17.412530254844775 0.9693641758088765 13.448080374656062
17.387402924930512 0.9291674715473239 13.408371633797152
17.359432299012425 0.8853823473317779 13.365241385944184
17.33534514847335 0.8560836527837146 13.331112178533466
17.290481358794505 0.8001002098818732 13.272672195294103
17.253537906318197 0.7224838928172215 13.232299278045147
17.21150538359582 0.6580179271864197 13.185188248033942
17.159343466639747 0.6054517316773667 13.126872965186816
17.121173474345674 0.5705408529191698 13.084355152981
17.08303435677291 0.5273868249652667 13.043144741315004
17.050230330495015 0.4676257746480599 13.015395744116255
17.0201226145189 0.43118977378399403 12.982265789343305
16.98706919993905 0.3782827823995527 12.955743504354889
16.961050514580542 0.3386630964452726 12.932947372803888
16.932449847760687 0.29574042068716855 12.908201708603936
16.89314959906359 0.22357368930103494 12.878887384263756
16.855254263551426 0.15835896100703106 12.850226501728667
16.83093252916027 0.11599367675554406 12.832418937791427
16.792781609623237 0.0514086694015532 12.803927514336692
16.75374436713451 -0.010742751392005534 12.775682830671713
16.713381006106392 -0.07091751396481083 12.744840905159052
16.671583755993186 -0.1182684359594508 12.709659741383593
16.641095001123 -0.17157950101701003 12.688969074230926
16.59233420639409 -0.21277715659658414 12.642099315532043
16.55070775306064 -0.23608120909363484 12.59608313215098
16.507103090487544 -0.26817555053680264 12.554299680130807
16.466319718980557 -0.29450353679016406 12.51099211054558
16.420299258177476 -0.33394967051967406 12.469179994522587
16.361769895345443 -0.3871638464059779 12.416702120689234
