283
12.62265506710892 -7.213040854658956 9.766177420283142
12.568569164786059 -7.232157435213685 9.843653529402488
12.512513862364926 -7.219702333446737 9.915000973642968
12.473995436927385 -7.2201905504305355 9.977334747882296
12.443273817851587 -7.220504343635977 10.032335446497584
12.418675747799917 -7.233715719088847 10.095615676194157
12.381194259720164 -7.235732002010797 10.188014220587739
12.356329814871533 -7.226900286690972 10.249321872546826
12.33239350384887 -7.21461651216015 10.31174576913915
12.30770566287411 -7.198468829692677 10.378749420719508
12.288093169368665 -7.181709106970162 10.441217002116396
12.272065471105464 -7.168924051182627 10.494878851780577
12.250278383911144 -7.155647334653828 10.600990323217019
12.236328703149162 -7.14330093314163 10.685340454238894
12.224032592291696 -7.128578727600646 10.754388641176973
12.216292460782007 -7.121359173506541 10.812086607049647
12.20815791668759 -7.1083482931701365 10.87238012804869
12.198476815577099 -7.091110233885605 10.933310590404556
12.190232036441945 -7.072698893976881 10.99583662705749
12.182492639593871 -7.054545036093774 11.060190141180197
12.174521187033232 -7.028420946628382 11.169208977553552
12.17166833394139 -7.009267596352519 11.253305262187759
12.169968201585533 -6.993972176450052 11.309845505099194
12.172846989006675 -6.987584066275414 11.363724288549506
12.176728804196653 -6.974653653113938 11.433284643092186
12.183934234853453 -6.9523851177007145 11.528870636995666
12.200029735546323 -6.933890253128039 11.640658849642659
12.214992773696977 -6.89143166006304 11.750306971020201
12.228085715155252 -6.8714842483391685 11.813839940091956
12.24234058109576 -6.862319049359106 11.862247388347587
12.255648710759036 -6.842926474068465 11.916516380638907
12.288433602708274 -6.831628467580703 11.999824620843263
12.311665940706838 -6.824223015732118 12.052740205594773
12.345291284740782 -6.806989775159849 12.126371134028634
12.370148188785137 -6.79329432747328 12.17626871899272
12.395281853092268 -6.779823947227069 12.224387794005942
12.423278667053332 -6.776745400018573 12.267672456663284
12.460259073539063 -6.759518658388025 12.32930420950294
12.493322282992683 -6.742384350391136 12.382591254346515
12.52099716112901 -6.730090434880422 12.424543721802593
12.566338168152964 -6.716365600893864 12.487628868283284
12.608919406799345 -6.705451648272305 12.543420945054294
12.648411241443185 -6.698630200774648 12.592434553569795
12.69303678620577 -6.695871564789931 12.643548272656759
12.728107525935016 -6.69489379122453 12.681961349060028
12.7766499594625 -6.68992197519073 12.736194028313083
12.8271842907564 -6.6834765982837645 12.791369168068726
12.882317746702274 -6.6814580408216475 12.847828642071509
12.93187476231893 -6.679832974970504 12.898160481346135
12.983266900039851 -6.682574997257973 12.94666701127159
13.052551452938541 -6.6876757313600255 13.010470896386643
13.118229459183897 -6.690585550839204 13.069361128456467
13.181886093349593 -6.666672551506355 13.138349455333408
13.231163246413406 -6.647953868305336 13.19137146849343
13.28860604022319 -6.630095343609636 13.248909151623437
13.354131857125633 -6.61285801366143 13.314390505882006
13.401176470068474 -6.604536067792271 13.3583446442465
13.465967861139383 -6.59518849958685 13.418463101466315
13.5061534093219 -6.585336992864946 13.456910287552404
13.559455985949818 -6.5760077806069415 13.50593417918449
13.606920451357848 -6.578247399980034 13.544367440135822
13.667602879662411 -6.589646335874681 13.589294269216133
13.715724142524458 -6.6140390566166865 13.617244927696142
13.790446529150614 -6.633669590693836 13.670310094551386
13.875826605969191 -6.629583706039343 13.743026743885604
13.940532884025654 -6.625685892430528 13.797914757876885
14.009629849419113 -6.622235013083364 13.855403201529825
14.040202915128173 -6.6231202008188745 13.879524775147111
14.136871611083581 -6.634103394760833 13.951377249683723
14.184100422311062 -6.646533281997263 13.982373607659508
14.241337076302408 -6.664042398054869 14.018333613277996
14.293605202335783 -6.672808686894703 14.054399531548238
14.346086825961514 -6.68014350161371 14.089812851574706
14.404400198856436 -6.685914912858092 14.129169820266487
14.469018670064166 -6.693485554716144 14.169955793732349
14.51745147318529 -6.709600862376698 14.1959300243843
14.563023775747869 -6.72458584762226 14.220447591681445
14.637466146272686 -6.74610072895104 14.258327913575602
14.70570483991887 -6.764125434145004 14.291966767313198
14.750805228101441 -6.777224836007685 14.312606492601912
14.796985058251444 -6.789301052077054 14.333303005882154
14.873584964212409 -6.803292962127763 14.366356842128486
14.921205751772483 -6.813476814531985 14.386151223955377
15.007936698706548 -6.821020890164217 14.421626797884546
15.072969553762306 -6.830983056314071 14.444310797395467
15.1396361483013 -6.843633955758971 14.46474466894215
15.19176930962444 -6.856902857076928 14.479126309973168
15.273574908151858 -6.8796545306886046 14.497563204301066
15.330789145797677 -6.896223390367206 14.508905312778989
15.386335353356678 -6.913706523886699 14.519147034029299
15.43534834009241 -6.927494699303665 14.528299753429096
15.49534294519976 -6.932018395474605 14.542289853321787
15.544831543947808 -6.934300823379244 14.55376642812547
15.59650729270719 -6.930810804472975 14.567827317672716
15.646771638442228 -6.925939053784408 14.57905276492589
15.715076248550695 -6.933440884348748 14.591686741519485
15.777973691740549 -6.95431153788717 14.597949907078867
15.844236403473289 -6.983462949536197 14.604247039596284
15.904481715501294 -7.004093863973491 14.609744740592951
15.99216794337676 -7.02762653680349 14.618638440460987
16.092026191705695 -7.066913204321022 14.62284912994799
16.1711083798709 -7.102740307388801 14.624654821440117
16.254591306919778 -7.158142414238775 14.620004678441042
16.299949423208833 -7.187588992765246 14.616882910713155
16.34219073539063 -7.2157918767941 14.613591623492063
16.39502257993571 -7.262379133782572 14.607011464875075
16.436518877584707 -7.291870902840381 14.602595735388366
16.503608470130413 -7.330652511389781 14.595944379976462
16.580881733920343 -7.330612975835262 14.600212880328527
16.635161050534503 -7.329552692873648 14.602154398424037
16.692216645812973 -7.32303216630037 14.604850942241704
16.783640786081538 -7.325338126633744 14.60453586620189
16.8565164550944 -7.331545086125731 14.600661195192114
16.981008136749857 -7.3934294480431895 14.578623617957003
17.027932764479306 -7.419323396701289 14.56794845442181
17.074437061381456 -7.470277035618693 14.548949096818578
17.12680757518695 -7.502734410361834 14.53353227246862
17.21098482915776 -7.565911645910564 14.502436038183237
17.285114787629315 -7.62307089712489 14.471026834929233
17.362678042002276 -7.689223273161055 14.431529014392346
17.40051061138112 -7.716919618220077 14.413478957525424
17.429813980938444 -7.772096092748301 14.382581664778513
17.45008869784707 -7.814864674878152 14.359155811339267
17.502687321659867 -7.91127786517516 14.298511817932681
17.55784238677333 -7.963859167011506 14.250856539626394
17.58961532073317 -7.992564392303503 14.221605973796468
17.639849374353993 -8.031693742127745 14.175422832121981
17.6855389593197 -8.069631932119098 14.129910522428265
17.75093304478192 -8.096731432406855 14.07498773651707
17.83969488641854 -8.136466575715799 13.99199202336045
17.915928053530415 -8.147189040123898 13.929431621905493
17.98200143176634 -8.158279355331116 13.87009288475684
18.03534797178063 -8.167849393462122 13.819046979389022
18.08282879704487 -8.187556495953897 13.764839625404978
18.142628000640585 -8.208260680167653 13.696192551067252
18.203242931830662 -8.218876505616377 13.630492071074425
18.25511840476267 -8.250098952266855 13.5563450809769
18.283808798785188 -8.28674382065468 13.49867319976148
18.324621633724426 -8.316090050297147 13.435195517139302
18.356998775862866 -8.347815071966775 13.378478539338005
18.389981082408998 -8.361021288278463 13.329134455349926
18.419580595119015 -8.37098174589044 13.287638288950419
18.459088439001217 -8.380003413493645 13.23370322353042
18.49769941272474 -8.39623398659553 13.174557490336639
18.528774459575317 -8.411613631470265 13.124246233249288
18.584254526660015 -8.416595565088148 13.048926645619492
18.621005790344448 -8.430361229861983 12.989091859573769
18.663720130588285 -8.448061701429506 12.91536221274907
18.69536673494337 -8.449290427296086 12.871670030082278
18.734600554001965 -8.4498931692464 12.814484100236399
18.776534299484094 -8.452434277179096 12.750233150740058
18.804501741527638 -8.459027387801983 12.701553558080391
18.835526378238157 -8.464792479798366 12.64968927900496
18.87020298183603 -8.47018781755707 12.586065613566301
18.89608808479673 -8.485745220640524 12.533054210061554
18.92915935041619 -8.50582604269619 12.459877603090188
18.971807617638053 -8.508277806428008 12.380702802364318
19.015947936533497 -8.513494370025938 12.291644777926777
19.038738824161317 -8.515858246451302 12.24091347133772
19.05910403525849 -8.51940774088684 12.186954342383931
19.078805406500503 -8.5309938972842 12.123875546530595
19.09892450118721 -8.537628532252333 12.055956661654427
19.110814349807608 -8.542179574857263 12.0067868997772
19.12397785377904 -8.548606829661376 11.940454229591275
19.139549909421692 -8.545728410929208 11.8554462698777
19.149664271077654 -8.543461593781963 11.795428723489064
19.151906406127978 -8.548155416370477 11.742461126842201
19.1520851208593 -8.552815652958905 11.668522610635666
19.150734703304447 -8.552901036733727 11.595668489337488
19.14660025359908 -8.551087077062657 11.518828823211141
19.13947943769533 -8.546260641281735 11.440661332270526
19.133933113305773 -8.540573480226552 11.38516235512628
19.126783526703644 -8.528882365830622 11.3136518227195
19.120001019778194 -8.516914219716583 11.251398400095283
19.110221262366203 -8.500984153358685 11.176923346619237
19.1019420376772 -8.479861754199073 11.103340451936596
19.092690443576018 -8.458162636161855 11.031544771118309
19.057051343601145 -8.453679845385572 10.928402466751223
19.04258964705269 -8.447400370857192 10.879630500399074
19.024809220893143 -8.416242080674333 10.788284670661174
18.988585505665274 -8.390669596845118 10.688893408655876
18.962024596354723 -8.376463671490253 10.632020186751216
18.939615255669633 -8.360690213179906 10.583876893747952
18.9135323108033 -8.330470595779785 10.523111687236877
18.889536006222446 -8.30154096313942 10.470781571227018
18.86073186322389 -8.260854722543813 10.410072810651833
18.83231165873143 -8.225051924573805 10.357075263986935
18.774515130833564 -8.194370671552788 10.279651318422918
18.692290316604 -8.140373215145718 10.170754163646126
18.64802521134896 -8.082918602199614 10.10558311272749
18.595103372899437 -8.060810527603172 10.044887459637327
18.56417719395755 -8.026755940915876 10.004306150864533
18.506657607816752 -8.014634205367242 9.943376098637085
18.46976130643038 -7.988262814330012 9.902149930098087
18.42927792910327 -7.957246553631428 9.855267738460022
18.387202755981043 -7.923767808859289 9.805238751332766
18.336329611537668 -7.894072427382495 9.748921052961627
18.30043727762998 -7.8833895810649715 9.711574849401241
18.25908097208986 -7.875071317161078 9.668764520294555
18.206124256470346 -7.863152648018627 9.614134398843536
18.164211868558148 -7.8426717606285195 9.570465601566983
18.111894030336458 -7.83611829832193 9.518328060969267
18.06979156716923 -7.809233055998606 9.473596167436874
18.023196724302686 -7.82668237510431 9.433901028697417
17.97674302324776 -7.825038227659414 9.390622225961497
17.88164083431408 -7.803304049522472 9.304072172759422
17.858672274591417 -7.796814121561177 9.283252309827414
17.816846670515506 -7.7851769528814145 9.246777322918867
17.747770978728795 -7.7747586139496185 9.190057457443295
17.664271991400547 -7.783091610664556 9.127303649969761
17.610266738229758 -7.782539574412175 9.089354616263297
17.55765141529448 -7.778929699617944 9.052514073617036
17.508534324160525 -7.770456200647947 9.019600691106145
17.4597542687709 -7.763471963966307 8.989036433361168
17.40034403095127 -7.760440468030174 8.954488650666015
17.32594336261658 -7.741609448512325 8.913656313827062
17.266444878068704 -7.723734904141557 8.884283953807728
17.168835429807274 -7.689727075796464 8.840642738830066
17.08621784944481 -7.685089556528974 8.813829994171687
17.026642335793234 -7.6752990552695675 8.797674345527852
16.933213838355304 -7.6642129013686375 8.777591860238882
16.84611595543796 -7.648786248375043 8.763899805124336
16.796147253352224 -7.634344703833458 8.756966218189117
16.73949957546907 -7.617805878798084 8.750973422781897
16.66225296058946 -7.604813075828607 8.745140448253839
16.593570284647836 -7.588432575807595 8.741588370019016
16.525235325979843 -7.576345996845195 8.74071743253737
16.470324967919733 -7.567267717069779 8.740402952430092
16.383338195831353 -7.545189600605028 8.740399182173732
16.31220418456804 -7.525428027518208 8.741416397207797
16.217154628311935 -7.4982142391280195 8.74415147317638
16.115525640066718 -7.4695078386502445 8.747617733420764
16.066756225829803 -7.45897174452433 8.750960317269115
15.994920111920862 -7.443861731431172 8.756214841475902
15.941465076302471 -7.431999713187549 8.761059594847044
15.876313264861494 -7.416791252356628 8.766766501400213
15.78010817899159 -7.385639081191245 8.77155543083105
15.682496658013328 -7.354871695488887 8.77773479773148
15.581572446086941 -7.340761331188116 8.788225072661486
15.498366865219449 -7.333324900032505 8.799069170311334
15.43769643776367 -7.320893232180472 8.803958883182165
15.389379306039398 -7.313139051814721 8.808106530810413
15.346702219268245 -7.30629017240498 8.811770246187095
15.278602654717677 -7.282404408756433 8.811237356992976
15.20530207586842 -7.266675275538864 8.813282277172217
15.163700657567745 -7.258002167249259 8.814428420550765
15.103461795393393 -7.245443530280477 8.816089209156107
15.02371949392018 -7.231669527799191 8.818067098540155
14.967014783150265 -7.226573843621225 8.821556556848183
14.888731987568459 -7.218971164126231 8.826880181075285
14.83202308980222 -7.217079760764985 8.83234212721051
14.77099024261506 -7.211815266471783 8.837303636384732
14.710896176254693 -7.20465390963585 8.841741135390674
14.655565775179252 -7.19729806821104 8.845720859012495
14.587570438081205 -7.199969732556228 8.858823256074785
14.530415744525218 -7.205849331000659 8.872317772595977
14.481448560585907 -7.205334713926646 8.883031805139208
14.420941711343389 -7.198160815327547 8.893306044029323
14.32909417471864 -7.188315751874306 8.911958400571557
14.257869234443277 -7.178770271137003 8.927000788839138
14.179450576639262 -7.171951599995403 8.947997781819264
14.13087348937309 -7.165591393302254 8.960496123702924
14.076891440490769 -7.159998463303014 8.9757150252433
14.016628394768276 -7.1617959001684905 8.9984045214139
13.957027671755387 -7.165294256733086 9.021518110338338
13.895008251935419 -7.166074741744669 9.044377913430985
13.827476806305416 -7.1620719835750215 9.066916931105766
13.771725402014038 -7.162988616300822 9.087697990539759
13.699610828899633 -7.163821384323308 9.115382724320643
13.633228508399792 -7.16524161359993 9.141869907712444
13.575899125344481 -7.16569679325341 9.164752078711903
13.485560139834156 -7.171718382220243 9.203836898283534
13.391722000689352 -7.167638780092304 9.242668234507828
13.320380080505668 -7.1792960354865905 9.280279076559665
13.220605014868248 -7.173183675647417 9.324027041747009
13.163507469100722 -7.172621005794843 9.352524534175323
13.10256341005476 -7.176785013073124 9.385879078852739
13.044929545748428 -7.180905402521402 9.41869705771181
12.957673971880556 -7.164671907825841 9.463777370582207
12.884706104367172 -7.1608194404007275 9.50920131110026
12.806653251595538 -7.1740163717879994 9.571743974243823
12.704135107090135 -7.1720867410099505 9.659333113787437
12.66138557662784 -7.190142822293067 9.711220486825862
