441
11.047286349201645 -13.682910799871769 4.596358085583033
11.029789048422241 -13.649856832632137 4.6575006737920255
11.021752216997157 -13.639479338081328 4.723987841589729
11.016226793244027 -13.631071179934972 4.783611423125675
11.012331894708183 -13.620588685245343 4.8612286935690765
11.011790835178754 -13.613544631324208 4.933231264267203
11.01382883116484 -13.601365405229812 5.025903667110374
11.019129185109396 -13.591669196126434 5.109865887851496
11.024315734063183 -13.580857539216064 5.174064310100254
11.029182149138109 -13.565678819800533 5.237281918183934
11.03520854869447 -13.54966528169758 5.299713550002979
11.055939564923136 -13.544774783201055 5.396208023828125
11.068577212965684 -13.534608344929973 5.460326198160809
11.078925923564627 -13.52620196145937 5.508956875723287
11.088620055001272 -13.5138051287591 5.558253084614906
11.09793775610852 -13.49884909217277 5.608237265952111
11.108544299721366 -13.484294451680187 5.6591384270427145
11.121852444243139 -13.473290751517835 5.710571624455161
11.130637506451192 -13.465112010996942 5.7454430662028155
11.149577773846712 -13.45487055964695 5.8052618687410895
11.191823649571697 -13.462435682860248 5.895599001735926
11.215122277006547 -13.455009583941797 5.958364271414856
11.245063406289713 -13.440273363658717 6.042220347729591
11.270012807547545 -13.427892304703844 6.111249970606066
11.292955742485892 -13.417858279413528 6.171728229299012
11.326848989455728 -13.407133348810023 6.254572821286034
11.359870284980838 -13.390282459429995 6.340133130982641
11.382993232252957 -13.37833925150242 6.398356089883903
11.403470262799372 -13.366115109713869 6.452999296819398
11.43492586555214 -13.350276035579848 6.532067633437924
11.477569810603413 -13.348054605287421 6.6100227933544335
11.510061396422675 -13.348076173050961 6.6680495221703975
11.551607408054856 -13.350898321031073 6.738024913608465
11.578384585832717 -13.34976496618462 6.785401967629893
11.60583871954071 -13.348601133528563 6.833112290583253
11.64873100823055 -13.351263219127114 6.901733524227732
11.678898015522186 -13.350943052032408 6.95154931706306
11.740837929908798 -13.342053459715464 7.058911454607278
11.775275158260069 -13.332484798902358 7.121393506076123
11.817515560188227 -13.32613398081824 7.191731014146475
11.862423176293134 -13.322845740382933 7.262485274308288
11.922129053569945 -13.338211195835642 7.3341506201738635
11.984707558566553 -13.317940555460511 7.440726165393324
12.020636713365361 -13.305543755603784 7.500852876497307
12.067992018950498 -13.301690822728455 7.567885133318766
12.098467781216753 -13.29915301032221 7.610642966775005
12.12714148778551 -13.293177599706036 7.652988675641511
12.156111691090857 -13.28696658342732 7.695441197000784
12.187622055467001 -13.284021677346194 7.738124408804767
12.247562542788119 -13.281263503113275 7.814820675332983
12.307469834278864 -13.26445050575713 7.901748779008502
12.339304467534431 -13.252877484971473 7.949238644530686
12.369321416007493 -13.234571912704842 7.999655237168151
12.394603158582974 -13.21848972986284 8.04205958079397
12.431675464402094 -13.205107372024854 8.096273539377995
12.460558707044477 -13.190620031113847 8.141211285714311
12.49415590201573 -13.170413152911982 8.195634577583165
12.528464471157731 -13.151815314334092 8.249574303989645
12.565008247255872 -13.130271109553943 8.307288626513119
12.601638166851123 -13.110707308393598 8.363133466668033
12.638163145045928 -13.093232348054238 8.4172267973565
12.68690641088168 -13.080446250571123 8.482608973279481
12.718697689673702 -13.048701609181814 8.539269212899567
12.750172267878293 -13.02369220387702 8.591756836120615
12.780006957465465 -13.008601282416882 8.635591131585654
12.82266943855321 -12.983482273022416 8.699340126353613
12.860685270136534 -12.95691117611644 8.758761468344845
12.901755232421198 -12.924932885404337 8.824579135808692
12.947027164136804 -12.886491742219638 8.898344475835826
12.993288644296875 -12.8553493785414 8.967862689648902
13.050077175892175 -12.837324246650025 9.039559616024325
13.094903563841468 -12.814006290846331 9.101421319537268
13.138523152064291 -12.818268008544463 9.144054556342942
13.182851847770628 -12.806712465535144 9.198028522011702
13.226746394622687 -12.805899145132853 9.24254876708296
13.255494035741158 -12.789182227317935 9.282414461016222
13.322278866750365 -12.782126460571016 9.354414732925958
13.394394107970037 -12.779748717671708 9.428378595279705
13.470460385480097 -12.784725497122041 9.501898795471059
13.537554848181994 -12.786942340156928 9.565981781655674
13.591398799452065 -12.792817350466057 9.614592482726545
13.642661918536465 -12.78524186910658 9.667800384700724
13.68437337822979 -12.77873780637387 9.711624571132448
13.729752334100214 -12.769715282298781 9.758207267931793
13.80100171411998 -12.757493595706812 9.829953282560728
13.870371283422505 -12.735853120736788 9.902432709398928
13.951144114644183 -12.710235456777413 9.983613363686397
13.991179153522385 -12.700916241306885 10.02079039805127
14.03900093801816 -12.68835236956284 10.065788181349154
14.087728762557465 -12.668773462747609 10.113176023550027
14.134049693388246 -12.622973941951445 10.166226349152664
14.202308943396975 -12.608314242587554 10.224938993208037
14.271299326745128 -12.55712512752807 10.294917161084895
14.337953282896402 -12.554195537695064 10.340981609855342
14.38443143306293 -12.54121527506113 10.376216934123983
14.459868891505552 -12.533427580068029 10.426274272452678
14.538194520430654 -12.526489269816134 10.476120904475378
14.594467951574966 -12.546839586725033 10.498598561475804
14.6708933450953 -12.564269973872793 10.532682703156484
14.768045220951334 -12.575264578878235 10.577735423290742
14.852385295576491 -12.578657243938089 10.616592647903468
14.914826608543079 -12.56883118218739 10.648630703414488
14.969223956992108 -12.571044607978806 10.671122154570726
15.024837320091292 -12.580509027014848 10.689511366738527
15.091503847043901 -12.591123483601562 10.71093864360728
15.15490708095416 -12.59496739095834 10.73171477162992
15.216507075870815 -12.595618208037497 10.751877516958272
15.276761551964915 -12.593634441513007 10.77068430116105
15.335534727776567 -12.589306110788758 10.788744007526576
15.419679209135223 -12.585428491290362 10.810617474606042
15.487347449922877 -12.587282195364411 10.82428268914512
15.539457371792855 -12.592672281050724 10.83117716197894
15.59959000128957 -12.600916087671544 10.836615383711669
15.649715720120279 -12.605178520916139 10.841129969134338
15.717298140824374 -12.61159858707158 10.844370683204689
15.795545549393525 -12.619248578847683 10.843935453230094
15.890762189785685 -12.623580969532243 10.838673981551986
16.006633439671972 -12.622765045025341 10.82324154434683
16.118194057760277 -12.596098876367384 10.801238465914219
16.21686201323721 -12.585261832963893 10.7643678588811
16.28856518357218 -12.560381639959381 10.73201431551041
16.40762954147872 -12.520800263908148 10.661898482695763
16.454662135454768 -12.500446011352686 10.629552577149893
16.503155708490315 -12.479233613284043 10.594380866625476
16.55865257691353 -12.45059574285252 10.551886086584096
16.61271529897033 -12.427153986896903 10.50878693506374
16.650875786996693 -12.393883056240995 10.477467127382829
16.699559479761746 -12.353339751400416 10.437553409994033
16.736431855013073 -12.334400224215493 10.407077207812078
16.773929329067208 -12.313995362711651 10.37621860248238
16.838705600144138 -12.272099904148106 10.323567591952456
16.892371194969442 -12.243589223618617 10.280991736132789
16.93597961699019 -12.222550539376249 10.247045015430855
16.97899937742801 -12.202612262583235 10.214207586329495
17.017403518434918 -12.183512544317011 10.18463808038772
17.058479578644402 -12.168423457307478 10.152481347549264
17.10010087760918 -12.153905135955817 10.119018521027973
17.149956557769208 -12.135693127700891 10.079523940817035
17.19677100430247 -12.118797931588208 10.041180657743938
17.24134570098657 -12.10386260069392 10.004224414745105
17.288670033282276 -12.091859294159837 9.96537470959987
17.366629215508866 -12.074357169896732 9.90045254712688
17.43309431661102 -12.053741157602213 9.843990810389373
17.480734127396516 -12.0366025588652 9.802819730385904
17.528071137074043 -12.018444772835773 9.761450442193341
17.580771203541538 -12.00987538748601 9.716559848715994
17.635832308638236 -12.005101276202923 9.669486903362285
17.68520633166129 -11.98926506000819 9.626506467217078
17.735045450335633 -11.971670404350988 9.582013583551054
17.786863288392166 -11.958138405386372 9.536291616415474
17.84345270011911 -11.944451370002623 9.486397271016562
17.894609653693344 -11.920603008333776 9.438698589099614
17.960891927821407 -11.878603770653733 9.374394533324262
18.01471675334171 -11.856459364757152 9.324381397918293
18.058693751042888 -11.839894157929749 9.283205464890736
18.116198310800232 -11.8191664058165 9.22914088766195
18.166202674921507 -11.800850056513415 9.181803538747028
18.215852136736196 -11.780720615592108 9.13432909806203
18.266101952137497 -11.762814767229441 9.086442259847962
18.337209055707994 -11.73997604037581 9.019318104002336
18.411703116271475 -11.725613763788813 8.951065635150153
18.455772262460265 -11.71270999117373 8.90962489594738
18.5071392959497 -11.699767508394245 8.861271134037464
18.558712470210693 -11.688030635994798 8.81313344914482
18.612397974683866 -11.671970119202838 8.76164669550163
18.65593430893092 -11.65812479507857 8.71946238688364
18.704071767789358 -11.642013816610582 8.672834073535798
18.762349646306674 -11.6264793540863 8.617957183358063
18.829213883748782 -11.609406805116876 8.554477818789346
18.868181340427814 -11.591207644472787 8.515433754645231
18.925710780790432 -11.567642340412151 8.459383410228957
18.962382715492602 -11.554303586108766 8.424488339105773
19.02104107521078 -11.52718440154881 8.366880450795195
19.068510350955343 -11.478296862622612 8.309797012084731
19.14875962174421 -11.455925458443417 8.236846451896655
19.197503625946254 -11.437008616951461 8.190827345964182
19.242544875068234 -11.420582160846779 8.14879690070577
19.293790861864878 -11.396458349926043 8.098468930215121
19.33653879535592 -11.373274285360727 8.054864133992142
19.4004814553609 -11.359764829233034 7.999251551509525
19.436884394364604 -11.349200906967244 7.966538696293101
19.503500117096568 -11.342922965718968 7.91258315138249
19.57253522269798 -11.344268788961365 7.860767873764486
19.625143526479967 -11.34241369870058 7.819663370231796
19.673755414799853 -11.338550960756153 7.780537826405913
19.731565319248638 -11.320056064294844 7.725992240851115
19.774026314338123 -11.303977737762352 7.684214817899155
19.81055167232075 -11.280636319081252 7.641300989604767
19.854682056825467 -11.255893502991656 7.591230764621832
19.913778799285293 -11.228620277354516 7.525914488302499
19.959674267380088 -11.208325944399252 7.474121793269317
20.004954019575642 -11.2054489444987 7.4340224787103875
20.062254748216034 -11.197269301069166 7.3781477787211305
20.123449822425293 -11.171537100386775 7.301445854387824
20.163057406965677 -11.154995556929057 7.252997764048329
20.198903438671223 -11.13913535086796 7.204595513735105
20.239427048128963 -11.125550025258002 7.1511830749142735
20.274997756791144 -11.11176413004418 7.10007681544136
20.30804257164469 -11.097745882505848 7.048266548962934
20.340595840105607 -11.085458160715037 6.996251134755477
20.383028471716038 -11.074175774947323 6.929154238314927
20.419124119444476 -11.05608502881866 6.85513851459463
20.44852130742172 -11.050206008104382 6.800410371171319
20.479232364451182 -11.047048959410846 6.744810971987869
20.50891385968317 -11.045319258506396 6.688347793634501
20.53679760547031 -11.044355523965415 6.6308506262066
20.564795076523126 -11.044828976195262 6.5729444493591185
20.59807316376019 -11.051368191949763 6.511527582158893
20.626177898238456 -11.050629719698263 6.435059844407055
20.65555449078159 -11.050533635583498 6.349295968513987
20.678382922777622 -11.05575688736121 6.2929458454453755
20.703663184191676 -11.064310764005812 6.231943084929322
20.727210172481705 -11.072613672290242 6.170455733953949
20.74624718610771 -11.08019526733208 6.12111286144904
20.773594912251873 -11.090185961810834 6.036130727119707
20.80699021974387 -11.10991193907356 5.9561301513682405
20.82829721498582 -11.120413552261953 5.884334312411996
20.847910661546152 -11.131723075506324 5.824679279245858
20.868378311341168 -11.144766177014032 5.7624561635885225
20.895365469250315 -11.163792125660034 5.677521656752139
20.921945973226634 -11.184554531591367 5.601851470020998
20.939648804560512 -11.19920211804514 5.54822851099175
20.96730745243724 -11.22299197314101 5.474809397457134
20.991824916746086 -11.246732687463206 5.426179138338272
21.014342944502502 -11.2689678102768 5.387150006607756
21.03796983203633 -11.292908875550431 5.347940604908937
21.06122537726042 -11.316645915697809 5.308852848747884
21.08384688241749 -11.33921407443819 5.270173372110721
21.106274970085963 -11.362789229014865 5.230727947467516
21.12879644133995 -11.38663202989029 5.192684269885026
21.153004630262785 -11.412227408426325 5.154646775043917
21.177087985891546 -11.437848653746105 5.116887124096564
21.201366229486723 -11.46377141571082 5.079400357320091
21.22682797002345 -11.490907087628395 5.0425079633419685
21.25303547460637 -11.519510210532045 5.005759375835819
21.298683647005678 -11.568879916549895 4.936405326025595
21.32051695284447 -11.59184955674506 4.896581522844263
21.35065187924788 -11.623829999395564 4.843098925928487
21.380830376407538 -11.65566953527604 4.789857227941885
21.40807394497282 -11.683564581778215 4.733971531285478
21.424498193807736 -11.69936545270916 4.68676276691137
21.45032890842409 -11.72266912426331 4.599397489597807
21.467278572030175 -11.73450774014827 4.5090872151426
21.480682507884005 -11.741605149472814 4.410852099254841
21.48717336025861 -11.743572279720363 4.3412560299436365
21.489735640785227 -11.740076507271453 4.269345183613174
21.492368450502074 -11.737443401920212 4.199225917756708
21.496960860411793 -11.738663494949527 4.130746894805412
21.503824924662304 -11.742034856793273 4.044458044049163
21.51035643054064 -11.748007106447279 3.960183582810826
21.521421454478464 -11.761813148636088 3.8704173859418667
21.530599381274065 -11.77536646519378 3.799295025673004
21.54709604864614 -11.802723833544048 3.714232055254863
21.55614685425363 -11.82330709251691 3.639820425384624
21.564028179340376 -11.843914698171929 3.5748552397747666
21.57069166411392 -11.871097634425222 3.4916245954324623
21.575298749563316 -11.902003854271591 3.405070385334806
21.57422740137694 -11.93715871034109 3.3062247908135642
21.567864965994275 -11.957666901092901 3.2450551267717866
21.55953071856085 -11.977685649867587 3.184499120080753
21.548060142723397 -11.99854057175285 3.1236890081220903
21.53632972716722 -12.018694534669132 3.0636140248991577
21.515350487154013 -12.050371754309767 2.9893649877562325
21.475295554666893 -12.093092995535958 2.882130846779665
21.44582285592326 -12.121483964390901 2.8169846537061307
21.418990321244998 -12.144929825382235 2.764535712642772
21.390552906706105 -12.170727257644621 2.711451504196198
21.360955130155297 -12.20010148063169 2.658487789188527
21.3329372042392 -12.227254339615564 2.6127644653802093
21.279172507653765 -12.264347244106649 2.533721236708578
21.23335967297387 -12.30301641945214 2.469256435496627
21.18810837836162 -12.32634311784083 2.415031693801163
21.14443430329824 -12.34888244526943 2.365450739969667
21.080266280958583 -12.37894591533373 2.294825750196715
21.026176448513116 -12.420232136414679 2.231974445625573
20.976128402563994 -12.456992585331665 2.175581175826194
20.941371667446198 -12.47400279882172 2.1410253259534624
20.903923478568537 -12.491737033338607 2.104233245041195
20.802013850049292 -12.511197270343363 2.0182320779565206
20.746160592262207 -12.515773936902708 1.9737708627814303
20.687936178159273 -12.517417561486573 1.9288290582945855
20.630308591003498 -12.521195945555679 1.8842740472952269
20.55819469559079 -12.52400659789797 1.828895769965504
20.516103191717697 -12.52439935757321 1.7979062051191512
20.45911016507418 -12.523021716172538 1.7561227921375853
20.389469141752713 -12.52183817736747 1.7040682575868153
20.343079921008577 -12.518471313808393 1.6705928447187297
20.2893567398469 -12.513730870790077 1.6318151107165022
20.238534082382685 -12.50853895272744 1.594973451860282
20.182992123850212 -12.50199403330373 1.555775767642979
20.12131419366689 -12.494879631814275 1.5133425375809022
20.073957398195084 -12.496180962262498 1.479881932220506
20.01910605719926 -12.503567234958481 1.4405778280899977
19.95958892254254 -12.511527093218973 1.3990041146518895
19.883626405453068 -12.516358018159252 1.3488276350468276
19.805255305213564 -12.532467903971378 1.2949178646867434
19.75420101645565 -12.537685819107343 1.2616996423148272
19.696258519053192 -12.542919782770381 1.225048089401625
19.63801048234278 -12.5498270295354 1.1881688892062297
19.579975225427972 -12.559014251830211 1.1510831204522365
19.521438624643217 -12.566432456823232 1.1149919454939
19.463565739088466 -12.576853843575064 1.0781892039861347
19.405974616843793 -12.588935778696202 1.0414727730347781
19.348723498745706 -12.59919271170882 1.0066077194385112
19.290459134657894 -12.610084418297577 0.97043604092549
19.224764378523133 -12.617959519303927 0.9317570525541843
19.174033197646388 -12.61811615990655 0.9045596577891288
19.112231218738735 -12.609772464650163 0.8756034018150203
19.050781996584597 -12.599328439414185 0.8482085289969472
18.9886130834902 -12.585200128903862 0.8226895591980679
18.92620299083604 -12.569772730282692 0.7983314485938315
18.875825289736653 -12.558135003603086 0.7793371617106839
18.80335165145614 -12.543004490506037 0.7517895981479512
18.741986291728125 -12.532639973596666 0.7288584974340377
18.64587030993024 -12.525090152741782 0.6912886332278045
18.57016766808448 -12.537081062751819 0.6559650193006643
18.5113764949911 -12.553253824482828 0.6262433037212141
18.45249640408131 -12.570703427346638 0.5957484518999987
18.383797686483312 -12.594775377588588 0.5582858742502008
18.293715982353945 -12.60724128381648 0.5156269484159477
18.22782410266379 -12.623660944718504 0.47975359372682647
18.15641039172926 -12.673254723924659 0.4330529780402248
18.08776520084557 -12.719583551582033 0.38821989200157603
18.02768787630025 -12.7661174687357 0.34818304246272014
17.981324829494646 -12.799769023426558 0.3187967778507126
17.928026638585692 -12.835182904772529 0.28673971753584127
17.881030070902014 -12.878266675145062 0.2572361641117382
17.832748386926298 -12.91749533859763 0.22932964763321984
17.756161631936216 -12.969369393098328 0.1905693472794443
17.691415021299505 -13.035519472411616 0.1571432853458088
17.64691390521566 -13.080487379582715 0.13662283007722742
17.590845482692714 -13.123939915804682 0.11588516707329788
17.541476855934732 -13.16092764166043 0.09998066365217362
17.485540183761444 -13.195711052362322 0.08618160786165241
17.416580487442758 -13.22877704836632 0.07321554754247117
17.36411724567857 -13.25472690264627 0.06636889651060507
17.304626289684094 -13.283247357731847 0.062286088071537904
17.238578479517685 -13.310608108650781 0.061523515995560274
17.15146231478863 -13.335554550867473 0.0668740580030196
17.068981090778784 -13.35532690288978 0.07753642851291787
16.993026284278663 -13.383117247523435 0.09294188579390017
16.929165240175045 -13.398271623462962 0.10833352195759893
16.870593803290085 -13.411263690248893 0.12471874322062426
16.81355161491991 -13.42568457971896 0.1425700036650781
16.755979485448414 -13.441455602244586 0.16278252490712752
16.683800919266403 -13.465668088303486 0.19027822992126353
16.63227899618986 -13.484913948316132 0.21146547136731897
16.579163590271904 -13.505254605150357 0.23545317854135028
16.50626651655052 -13.540613564894928 0.26786650302276094
16.445849701211877 -13.568674555144396 0.29677007754163753
16.396756319852685 -13.588586040819548 0.320744881334182
16.312799564570785 -13.616881544288622 0.36283672261131805
16.230937996562083 -13.639304822635252 0.4046902725522372
16.139998152851476 -13.658939742772864 0.45202305359882367
16.059189819734048 -13.671311754120504 0.4948807713248726
15.990754293747006 -13.68221735253474 0.5315118152732872
15.897457658034204 -13.696475129010315 0.580961290489654
15.829821361844669 -13.700758763551844 0.6196599409013377
15.75368829590201 -13.699434658627622 0.6612582313011508
15.678480258349685 -13.690132800094771 0.7012869232824599
15.614018854410636 -13.678614920187615 0.7371237648685351
15.550169958605075 -13.656100503753011 0.7713520546092951
15.508074717811988 -13.634972140933966 0.7936938800946631
15.466314262620882 -13.615163075765134 0.8159073679300999
15.410306377166599 -13.589790671715209 0.8456835843324217
15.332143147961476 -13.554329311650763 0.8872495906688798
15.277666472253637 -13.514379988456584 0.9151601902239612
15.22578299526172 -13.493267822378884 0.9401006091566213
15.137601441771155 -13.479255516378506 0.9845877204186166
15.083597272927511 -13.487574745861865 1.0145649120306697
15.03049954294377 -13.503079985373658 1.0459069854354386
14.971646428923934 -13.523399085358554 1.0829291500634568
14.912044134864342 -13.540997130468343 1.1188891788150652
14.857983951115314 -13.545284341907449 1.1504747124558392
14.801167885746795 -13.547600627633598 1.1831613019814586
14.742752799552322 -13.53512783441939 1.2139078117822635
14.669528784043802 -13.511068442119575 1.2494185652502612
14.600039007291906 -13.468893626830601 1.2766047266926055
14.498474775320915 -13.430220800330934 1.3224202017973479
14.423617322289168 -13.405374961101979 1.3567386641941717
14.360876650591935 -13.388457853427992 1.3865471607540059
14.295616821908977 -13.37218573866724 1.4186285301570027
14.22689876859431 -13.353002208378102 1.4505348238711484
14.150974484382616 -13.348179831918122 1.4917025693567467
14.09108104603388 -13.362535979736522 1.534946933657018
14.037771805640087 -13.376900630336573 1.5742266284918252
13.98385187725104 -13.391041315536155 1.6147934294278876
13.931054338341038 -13.406827162511126 1.6563925845018321
13.874268403058768 -13.420900762630191 1.7007993592160595
13.824486430628706 -13.432159780493711 1.7398881926558687
13.759989580701646 -13.4448697333685 1.7901008024037655
13.71743596342808 -13.453760789213637 1.82420571695185
13.66391983140453 -13.463344174086837 1.8670745924919956
13.609674622190656 -13.472443749931939 1.9106130225998879
13.558265972538534 -13.486499319066349 1.9562505872105955
13.507102086757193 -13.500248139543382 2.002553745416318
13.455591554020653 -13.513257682756938 2.049200342073009
13.406264158111846 -13.524610998411399 2.093580745047305
13.348964917814495 -13.535789794892024 2.1438846524472073
13.289445686440704 -13.547942049074413 2.196897848028419
13.23117933878637 -13.566969121707809 2.255014828060432
13.189364862682897 -13.580399518535602 2.293855778680637
13.121479089583772 -13.573941406218873 2.342174246892686
13.061778175705127 -13.57050460466739 2.384304120377708
13.00862525715903 -13.56841683042036 2.4229957802266373
12.933654992197464 -13.553016017780047 2.4675937964219816
12.852456292642078 -13.546708338792227 2.5254640783053013
12.797687565502796 -13.543211468133231 2.565248722100156
12.756374581393239 -13.54124840471299 2.5956995147398967
12.696472184345767 -13.543407213250463 2.6441309141982963
12.65024623646438 -13.564223383152454 2.6977009147802296
12.608823908402215 -13.584958309118251 2.7472054375497503
12.577080861310167 -13.599284990792361 2.783862879935997
12.544575060836893 -13.612048547606522 2.819975542254584
12.497483256670492 -13.629093036415648 2.8712768693761994
12.440731663528098 -13.63732825027463 2.9236643750994062
12.395147315692492 -13.646170095844207 2.967710323384315
12.316116673512262 -13.667919485874327 3.0495763371465916
12.263325938725252 -13.674149214790544 3.0980937167038647
12.19357804144878 -13.688884025323807 3.1683666157844765
12.132077311774552 -13.69203569994483 3.221937911543666
12.045364221076793 -13.68758659830298 3.2917920392842017
11.9847235916792 -13.70876239842915 3.3609641660479657
11.921465590497768 -13.724542652460611 3.428306520026153
11.861123694052054 -13.736635107560309 3.4908542385031147
11.798832473030407 -13.75302637755014 3.559436196793081
11.739738452323998 -13.757183299252583 3.6160160024553
11.680060939641411 -13.765609998336002 3.6778271507311935
11.630782278742007 -13.782031946279611 3.7374154547635214
11.580591138821797 -13.793308773294614 3.7946479429896662
11.53797067360381 -13.795574608258965 3.836802760453704
11.491847171162922 -13.81697613959375 3.897758461168804
11.453716736871147 -13.829083237182951 3.9433397229436444
11.417838800836712 -13.839114649685586 3.98533752576693
11.370308553608066 -13.852134368899263 4.041828042636359
11.31300985503937 -13.859835012935873 4.106981486952165
11.245233422068225 -13.860227351780859 4.1893355620241355
11.178536531019557 -13.832092638190774 4.275580395282965
11.139512707280407 -13.807517780588428 4.348230669098138
11.104071294386086 -13.776768458886236 4.438619812076011
11.069671150707297 -13.72200735798509 4.524927068614355
