252
6.660922782371383 -9.394868288050358 2.1414356882572108
6.606647764421867 -9.412037455123492 2.143154509415626
6.549019674018133 -9.431566088570955 2.1459721870200377
6.484930040244318 -9.446966314660553 2.1504016414961487
6.435607095579437 -9.460193241107326 2.154497693603286
6.3630824186657335 -9.488551351209615 2.1615076928950328
6.3009672936218575 -9.506724666262745 2.1688354618426677
6.233944202133026 -9.526092069217373 2.178034393700474
6.173788161221416 -9.539166420862104 2.1866478740956783
6.1083997445511855 -9.550777303933799 2.19713317663549
6.023562131583609 -9.593952019653429 2.2137571805681118
5.953544188754097 -9.627450455628185 2.22830088269409
5.866616305943953 -9.679615474094735 2.2502723816614765
5.815087479848838 -9.713520890553276 2.2644305915370695
5.769323275094969 -9.732924962263724 2.277068362166084
5.662046510581481 -9.772378612865962 2.308750370898599
5.529911586525964 -9.825824800862087 2.3531341966405073
5.477755396809751 -9.830620559444636 2.369524698892171
5.423735534373603 -9.83616534855571 2.386551309231601
5.343895516028903 -9.875688031912471 2.4136871694153483
5.2739268493215326 -9.909493743222136 2.43648952690912
5.212110738985317 -9.93700924792319 2.456264189704889
5.126366955573706 -9.966413667630572 2.48280000663323
5.075427655846694 -9.978355349742248 2.4963671710057342
4.972296501442422 -9.966962612515776 2.526290685793044
4.881799772201197 -9.98632285285182 2.555573238169354
4.817457308190267 -9.975302949340985 2.574969488579649
4.756110209738392 -10.00064528033128 2.5991991719287713
4.695843429828822 -10.028069861853748 2.6265819772806585
4.641649923264477 -10.050475665541079 2.651929045605874
4.57604971604388 -10.079380357078634 2.6862912841946716
4.518056387390199 -10.1029848556793 2.7192677468024566
4.4558390258936305 -10.13120289329039 2.7593598244079294
4.3987498424100036 -10.145999985067025 2.7992467836509363
4.358271499529236 -10.164557746118064 2.8325826517565877
4.311174395007352 -10.185002557097622 2.8759743280523136
4.267447479065828 -10.203032090993592 2.921628935674991
4.222073933128779 -10.21955427021916 2.976819829438991
4.17294539753415 -10.240236457964045 3.0514421367541056
4.13478455030638 -10.258492810911712 3.125405583117863
4.095109145710522 -10.267815672474846 3.210050518539995
4.0641367609457655 -10.288052475384255 3.2964358525525683
4.046188222667905 -10.298980629223507 3.352130927845886
4.024769040574871 -10.305344244489572 3.418054225690275
3.998062523805877 -10.326907159103289 3.525537062782927
3.9951846405772837 -10.372863323409224 3.590439678440282
3.9911871554448517 -10.40044658161705 3.645307192486132
3.987096299818581 -10.42264365166632 3.6929321813798945
3.98699771627423 -10.44814645033653 3.7377913874832327
3.9852308255182436 -10.473668792647407 3.7922198602146873
3.976919648276594 -10.497737497126604 3.885455929331159
3.9739385873212107 -10.52121369032701 3.954908087824336
3.973906429793968 -10.537100472953675 4.003729921649252
3.9726101326098995 -10.550318091794509 4.052047854500044
3.9723089360076544 -10.572337702154147 4.132045142081246
3.9708906070820724 -10.584510455492598 4.198573085146096
3.968553457300369 -10.592118467691492 4.271873406232177
3.969225616209651 -10.607864359146378 4.383025322208796
3.976723116598719 -10.627520627947948 4.460598066301847
3.9824467420257275 -10.638881931738279 4.533717075744822
3.9884375448772342 -10.64697348169664 4.602137400361258
3.995466121221387 -10.653437160950617 4.670211243816864
4.003255885377643 -10.656562820035951 4.7363356485475885
4.009625427138724 -10.654790449681897 4.791432304849703
4.02217392219887 -10.663803745582346 4.845184938640098
4.045315079876918 -10.677749926436839 4.919758418189427
4.064920161347052 -10.680432774713175 4.985244601347615
4.080986161715866 -10.68125509734649 5.0306933219141445
4.103844989049519 -10.671462045180537 5.097723658345694
4.129708762348887 -10.667049310520436 5.152674218266754
4.15900549997407 -10.654068016839584 5.213473340524667
4.190115290683005 -10.639920084399733 5.271122171022526
4.23158396378672 -10.625700981337134 5.334937907476572
4.265585967611729 -10.614196295445957 5.382935064037996
4.3070724791307375 -10.596980331608634 5.438317648214371
4.34876462983368 -10.577215382553335 5.492049654317417
4.390370252381357 -10.555398129375803 5.5431193127687015
4.435378309899472 -10.53057085162857 5.598101939359519
4.479919376364365 -10.505688339938072 5.646891175726835
4.542667921840635 -10.466630062556773 5.71564395827398
4.590225605858661 -10.430765385992013 5.768809010675283
4.648385363262571 -10.385942603782766 5.832118094404879
4.707182069743005 -10.339150221521404 5.894731721173617
4.751081190348299 -10.303818408779314 5.940579111619529
4.785757936640098 -10.275858754756563 5.976690830209234
4.841517600261837 -10.22758421700561 6.035564951794044
4.876992509600959 -10.197082247543872 6.073025444213806
4.917401812484947 -10.162453758077021 6.115529610525668
4.956270875168286 -10.129657527184794 6.15634009767682
5.022227838759575 -10.084506112811383 6.221352735597372
5.080813778007444 -10.038356160310201 6.28550111127979
5.116438593332129 -10.021927558875351 6.318760982634044
5.161234322617002 -10.006608286399718 6.356695456117814
5.211450803771649 -9.981006703099034 6.402593277675077
5.259548403034113 -9.9555904888494 6.445100501041382
5.298248993476102 -9.939635399838936 6.476217073929582
5.368845930979203 -9.90892628106555 6.53032270964748
5.448888353994719 -9.870387073986677 6.589189331771093
5.543293782176226 -9.821567616637347 6.653831250815704
5.611666152762231 -9.797497917675921 6.691286863019221
5.684837513394168 -9.779574077060158 6.72591705025698
5.752313579501468 -9.77163309273741 6.753663171635361
5.836688975986799 -9.760527650410683 6.786442817941212
5.912888422699671 -9.751680589497237 6.814557966805847
5.984820370649942 -9.737781718409344 6.842564677316573
6.052198241764348 -9.729064530947447 6.8668791017088475
6.107703245840519 -9.724387957489117 6.884703904301583
6.165453755626293 -9.72047818361154 6.903403973676442
6.213468245478898 -9.716926175904343 6.918240064377075
6.290925463318043 -9.706609181376685 6.942908419467486
6.352697080380061 -9.699765917433021 6.961405037910084
6.415370541134866 -9.694034076665952 6.979203554762069
6.477780792801903 -9.687239846936656 6.996151850677982
6.55058045040448 -9.676916853607839 7.014873949425529
6.6069475253182794 -9.66932033501314 7.029038286898384
6.667287141992924 -9.664758209074481 7.043157528100509
6.739655923378754 -9.656389095877394 7.058597069690536
6.83612244543532 -9.64931005993244 7.077823545642282
6.920260051853511 -9.634128575648695 7.093925803822016
6.995671892193467 -9.625405599168115 7.105324563748292
7.063293444647718 -9.623111176160181 7.11598079990298
7.143265753466043 -9.632948940029955 7.127319854118765
7.22580834019343 -9.635636136376014 7.138570157756796
7.285156492540306 -9.635996111313776 7.145738835218664
7.380370861946922 -9.6293415438051 7.155646435578305
7.493242682206217 -9.633879784593084 7.1681055600127035
7.559049021572399 -9.635370729929926 7.174686070778488
7.637613621758131 -9.63723672926495 7.1819077466184496
7.693370961749249 -9.633953535600243 7.185697405142082
7.756580741692838 -9.629252214475656 7.189775473994803
7.830635518188613 -9.626112981963551 7.194427507423505
7.9153047717416065 -9.62324590532804 7.1987710696716265
7.9691600977483485 -9.626272904500283 7.2013218879655
8.038415902791195 -9.629954850497969 7.203673330321617
8.101593870478737 -9.628719101824878 7.204608135890713
8.17730991507838 -9.619253623900448 7.204153692990366
8.228283546454277 -9.614571521028335 7.203329268096466
8.331755356547859 -9.616402444591417 7.199992612465151
8.430124369402677 -9.611401098892369 7.193958129422873
8.479767975727693 -9.598654059691608 7.189491831748832
8.547276702661067 -9.5755403130837 7.182065597028689
8.613898824349135 -9.550833333918888 7.174154343345294
8.685363551564667 -9.518024804894878 7.164097288257731
8.77435160308579 -9.481154053704866 7.149261768239722
8.838685257689773 -9.47161975705755 7.135625228770238
8.913067803098562 -9.47535792748257 7.115661298412647
9.022558805952496 -9.470657675577584 7.079680558596991
9.106941225675545 -9.486092676904263 7.045644219957823
9.169326321720778 -9.49978964321927 7.018067354967119
9.226984451202558 -9.504885148187816 6.990260637404182
9.280010720033133 -9.500495206477591 6.964074509003955
9.360221776169913 -9.508885846277327 6.920109242596655
9.418965280144192 -9.51112340841335 6.884792758433223
9.495800112492413 -9.509764829894392 6.835071272561632
9.572359834283066 -9.49832393139192 6.779854508407523
9.634225285654834 -9.481904495240602 6.730150364317977
9.673207133652205 -9.474862210507537 6.696498727102688
9.745848271938447 -9.471613787519662 6.631060690489604
9.810337952783424 -9.460512142113167 6.565105422839663
9.87265217041369 -9.45517047989977 6.495603525387087
9.93243014153518 -9.446613514555214 6.420937988706753
9.971840077503451 -9.440747566747504 6.365968219928465
10.021190609280229 -9.438356956564299 6.291186891612931
10.054169113429676 -9.439800403066979 6.2356522208144645
10.085286947620835 -9.4400400905382 6.177444320626532
10.116430576750444 -9.438120604025489 6.1128443074957115
10.142253691823644 -9.439797060235119 6.0556725199254835
10.167253135549814 -9.449541963602694 5.998612077050217
10.195172936584102 -9.470752057912458 5.9341379546526305
10.216360201537112 -9.487842478902316 5.880812390806564
10.250665916177296 -9.508541713407258 5.782516351220576
10.27822034089807 -9.541290161122024 5.696881096848014
10.296534397732918 -9.571696793362491 5.641024743282419
10.313548155674026 -9.600786440040284 5.581609247521369
10.331682043806827 -9.62686571844203 5.505372575866492
10.342909006053048 -9.6371468544099 5.448711114075216
10.354166208301214 -9.648650150158375 5.3833908306055385
10.36599445197567 -9.665179592932029 5.310915791796928
10.374221527929683 -9.67205968675664 5.246699601103257
10.378672328695655 -9.670606786265111 5.190722635590705
10.383554698017287 -9.66103911596776 5.109223516369289
10.385549810752238 -9.641917554521854 5.026533472758899
10.384128126772694 -9.619414737728636 4.951838964804917
10.38101887529872 -9.59867030998295 4.892574297418432
10.37308408875182 -9.56825933816697 4.802809668753351
10.36384617434014 -9.544645126025227 4.720510396835238
10.353002589115086 -9.525725956483562 4.646668178930543
10.341814799663542 -9.511110953040646 4.581998517322744
10.330214671662047 -9.502601378852606 4.517382535005345
10.317171102706796 -9.497438827162373 4.453087902246034
10.298680447201924 -9.490995734243391 4.367945407996625
10.282548902902873 -9.485144670465797 4.296534351534953
10.265777376460674 -9.480473739665898 4.231591611006475
10.24728074063245 -9.477539213782496 4.1668790975998915
10.218855189425181 -9.475303607779265 4.075425747499155
10.182280742564917 -9.464226334598933 3.9805611850475247
10.149181586368245 -9.456322717888083 3.9044170640494347
10.109842040999602 -9.442080800285877 3.829003150046846
10.082934920376747 -9.433588410914012 3.7807173492239494
10.044946867681274 -9.4238277501624 3.7154701629638183
9.998210449063658 -9.41087614274245 3.6434691301290645
9.961216384182336 -9.400588146195844 3.589435409276846
9.923437899926224 -9.391362935792898 3.537520230372041
9.883015955876942 -9.379878381576734 3.4859572990018064
9.841125696591849 -9.368227939788412 3.4341415562191533
9.79762130210502 -9.356982387561334 3.3834207662865516
9.74438818170632 -9.344538679164422 3.323795339869501
9.705857532682973 -9.332047792995722 3.284838701216571
9.652573879724393 -9.311863145526857 3.2353899192116597
9.6061043555303 -9.298058725457487 3.1924900867985135
9.555598219158657 -9.285503481015944 3.1461634825541687
9.486490035957537 -9.265667990342127 3.0880530047061567
9.415965755689074 -9.244754166831251 3.032711149074621
9.363729693008201 -9.222826015766596 2.9984266181035037
9.306870712909758 -9.200636899346668 2.960617457068709
9.213612139968864 -9.160631605697208 2.9055397753476573
9.15083831023491 -9.162673426963808 2.86055136230123
9.098006011018981 -9.15968276889732 2.82882714388797
9.033906584274602 -9.163943012285873 2.787687194093892
8.975049053843467 -9.17083506374774 2.7506110819134797
8.915040092307175 -9.158722818326776 2.7253165015797007
8.852099237462198 -9.147786821560775 2.6985059571715118
8.790276925739894 -9.146154755902845 2.670066900315467
8.726868786811401 -9.145910014437522 2.642028069190177
8.67285777135959 -9.15267087022259 2.6164730311523376
8.593437621794672 -9.161803506264928 2.5813722589768817
8.537439637961562 -9.16849896650666 2.557422584124926
8.473130958450524 -9.165785725510794 2.535602925662684
8.406967300101561 -9.160290710506663 2.5130426953827696
8.341385827639886 -9.156605996653735 2.491620400330218
8.276359406094004 -9.15426792227688 2.470569705859443
8.185825356843685 -9.152680553366956 2.442132317521625
8.118328317517681 -9.153269713809653 2.421046901768502
8.029163483266489 -9.17252157086288 2.3889651072911793
7.960092650187171 -9.175430981889896 2.3679338947420874
7.878110172604499 -9.168471309946515 2.3472323671226
7.808277943569886 -9.182721660515247 2.3227702977722373
7.73670285960921 -9.184972418775931 2.3027444137020385
7.669256617819068 -9.186928181130586 2.2847254773371883
7.602687938726001 -9.189299829574992 2.2675260473534085
7.521498731890633 -9.191152107750277 2.2478439995598927
7.4722538878790825 -9.197262601313273 2.2356628880795286
7.409174255173365 -9.20879942464476 2.2205152809667874
7.3236699868352435 -9.22870511108672 2.2013237185083696
7.249536667453638 -9.257006279686308 2.1845528468502042
7.184215322548294 -9.274364906956276 2.1730766270722217
7.122479564223557 -9.29269655218473 2.1632357249903094
7.061823995315816 -9.312228839085058 2.1552785797580336
6.98326358717077 -9.345535763911517 2.1463856119391616
6.915677763813175 -9.374470385057382 2.141114016147013
6.840512047514213 -9.376403591356489 2.1391965236250323
6.738998954885151 -9.382718029995605 2.1395528426840236
