312
0.9174437426663506 1.9796802325825178 18.635062079648794
0.8608724673425647 2.021669537872037 18.685687057034066
0.8227615547335372 2.0488847649669415 18.718571185717295
0.7768749300058277 2.0891485084190977 18.751413853919445
0.7171872202538689 2.1460146425741646 18.78593614376076
0.6582063832578053 2.193149041701588 18.82479116450763
0.6190184767490585 2.225488811140327 18.84770035994044
0.5630964995842818 2.273344159053872 18.875677195613626
0.5250964637508564 2.3028579570123746 18.895761998036658
0.47168593003580694 2.3395737639870324 18.92560023559443
0.4242391130347256 2.3634510792138457 18.957391106439765
0.37783707210327666 2.3879182330698416 18.986614491484627
0.31541660826223206 2.4259945541097148 19.01903364998891
0.2663364161569426 2.457999425883914 19.0405727587109
0.20092970717533376 2.5009496040578947 19.06609268947514
0.1602238828897975 2.53622198199609 19.074109409712165
0.11092221320133544 2.5755471762772286 19.084357692698127
0.027494985873737 2.6373255057699296 19.10291668705602
-0.015324081407573242 2.6687104606512495 19.112010249330876
-0.06848833632641527 2.7074208158459783 19.122926942615603
-0.11518394189254577 2.7370850383522676 19.136165387657407
-0.1641216974022559 2.7669033181426856 19.150766401825184
-0.2298632324870642 2.8013156725328887 19.175954982468955
-0.28226340878803935 2.8245958847717487 19.199568811609662
-0.3425947812488346 2.8547455115680327 19.223059920002132
-0.40942114512285466 2.883078940700769 19.252386069013017
-0.46027785287746026 2.909346804980526 19.26934106827911
-0.5228092051727631 2.949829977008288 19.28073943922934
-0.5862751995845339 2.980768561014118 19.301045258500626
-0.64530611552248 3.0199094636680295 19.309510123989778
-0.7059030375764321 3.056415504703743 19.320010037397378
-0.7682321499465474 3.0903760217910046 19.333381319227712
-0.8294538784106542 3.1249562632357657 19.34426791911707
-0.891853508201142 3.161024089654183 19.35170682345242
-0.951908325417037 3.1982537332459655 19.35513687243841
-1.002380374107931 3.232869099247531 19.352227826833303
-1.0892335094939714 3.2958501810336047 19.339091612173007
-1.1625876032216937 3.3412180418742654 19.334287452291917
-1.2175905802398996 3.3821770061655565 19.31916366077159
-1.2952094921069834 3.43455195840873 19.2995900912222
-1.3526386154953145 3.4693737251013577 19.28600325486802
-1.4042295450160496 3.5046205738237406 19.265973336756986
-1.4570686040505618 3.540137808818314 19.242715392326357
-1.5246376951177139 3.5841401767814443 19.21224313228442
-1.5743371714339207 3.60810210401321 19.200020236771643
-1.6231529857702214 3.6290998067525946 19.189618109170162
-1.7140213631016112 3.675993047555008 19.158486607687333
-1.795983365506276 3.7097329576028812 19.13758420614583
-1.8457877235898243 3.7307888954387183 19.123368332081842
-1.9150464033820118 3.7590438305076708 19.102619561491682
-1.9702214222073708 3.7796784867089777 19.087177628370668
-2.040853362446773 3.8063139167322175 19.064863634172788
-2.115091702116538 3.8261775450306708 19.049868869134908
-2.189955415794725 3.857098454199706 19.020613908380167
-2.2766985083775007 3.8792400856007196 18.998236412173544
-2.3924625213936332 3.871168210209418 18.99998645867906
-2.4630742227932654 3.8753149318806948 18.988557355429744
-2.5186546051534062 3.8836730391447656 18.973236510344712
-2.6221069246961544 3.908347044108085 18.93413872295991
-2.71248210238001 3.9045445375808994 18.91737618903434
-2.8165440830774813 3.912555533271501 18.883592655144597
-2.885350100680885 3.901134064411992 18.86965435398165
-2.9387799939874313 3.8916035498171375 18.85747435704866
-3.012404567950015 3.880330780090861 18.836822970136115
-3.080164764058665 3.8722879020320002 18.814649181783373
-3.144783569540671 3.8636331672683557 18.79316090232131
-3.2066993397296892 3.8506903066201827 18.774009626585066
-3.2656649069899246 3.837636309216081 18.753842237221242
-3.3227204081755914 3.82497411576197 18.732278650188952
-3.377733339549331 3.8126739316803606 18.708306422714823
-3.431475313527848 3.802156546514425 18.680826552967645
-3.4848842308240267 3.775984035533819 18.658928968054486
-3.528404622078817 3.753412150175043 18.639037153219018
-3.606639118548821 3.7179308042850483 18.591093325225497
-3.659086285730289 3.6842294851238195 18.557435232352688
-3.7008145522690343 3.656512907728459 18.525764166158446
-3.7659418131646483 3.605661769638777 18.477830286469075
-3.814330074408359 3.5651288481732006 18.436363741674697
-3.8471729136940467 3.5367900926113824 18.405759964890883
-3.8788187075297293 3.5128049081814146 18.372425675406515
-3.9321868793580004 3.4612952977927085 18.31677190450668
-3.9987364523429902 3.3795486201886025 18.246256844965803
-4.039332840809381 3.3268108759931545 18.19941770458798
-4.0846673015175785 3.2637565515026026 18.14437669124947
-4.111100519243456 3.2275078168044624 18.11075916050016
-4.134925666562633 3.1956720096198046 18.078177069827124
-4.1658499414838035 3.152231808700341 18.03635265965925
-4.219620406369245 3.0684752995653115 17.96236852535234
-4.232287978355472 3.0464362846382818 17.94483787484807
-4.260329961302812 2.9993797422376858 17.904891543542885
-4.2987009180276505 2.9352174691791104 17.849889267360535
-4.338734126698897 2.8521504446010315 17.79267916326313
-4.374240688251533 2.797869647695645 17.73401507056883
-4.399286682669456 2.7472043024372264 17.695434021236956
-4.429401791393797 2.7006506385287654 17.643536616757693
-4.464650037011303 2.630182080494098 17.584631270081204
-4.506568511610979 2.555642052801038 17.511194443061246
-4.5423101614720025 2.50116137304519 17.439909751363565
-4.560666977128707 2.466600858954349 17.405231328331396
-4.583447803020294 2.4143307131484573 17.362506433171948
-4.622936624549077 2.344552812308966 17.281353945035665
-4.653365444870797 2.279577925547656 17.21748153951398
-4.677817535054995 2.219458503016355 17.16425131145896
-4.69880266714433 2.1659817243235384 17.11684910179619
-4.71321048079871 2.124477504087306 17.081034823065988
-4.730486003440108 2.0771851772000502 17.036656381654684
-4.745538063962162 2.04257207186843 16.999326027397082
-4.760792122414829 2.010292498452195 16.961538874595462
-4.784992513165861 1.9612617244169392 16.902528988368193
-4.8049089076111065 1.9259788365655233 16.853057381879047
-4.834239758056926 1.8818804971564775 16.776548150903498
-4.864214805423048 1.825847339444878 16.693150278953784
-4.8904651445544545 1.751020584211334 16.610484144325465
-4.909379118355698 1.703064434554907 16.52718888090074
-4.91788615374562 1.6558287288978626 16.47125763286744
-4.919465245119852 1.6037470414118946 16.44078222538463
-4.9179759078968015 1.5478657272126668 16.407093653880466
-4.911410841157398 1.4780048847394438 16.35594007893203
-4.901280071704927 1.4220964585304348 16.31127810109278
-4.8882092201530885 1.3713082943823451 16.268168259558532
-4.870173721326928 1.3225100502528218 16.220570788468027
-4.842603638610909 1.258496484751122 16.16241362573699
-4.81066823169226 1.2137177785596336 16.09303553291697
-4.782225877171773 1.1753463767533514 16.041333396416473
-4.755340147727754 1.1405516444477213 15.9975316897149
-4.725030134171046 1.1109014610011343 15.944639976841469
-4.678905665121548 1.0738365250445332 15.862121748239968
-4.646110503601106 1.0504795160548683 15.80595488149461
-4.604029196605802 1.025836132731647 15.733062052369938
-4.58198014073975 1.0125107824805175 15.696868410215014
-4.561920079297849 1.0003886739946948 15.663939344657386
-4.526448229647309 0.9811993520389084 15.60726525419351
-4.490592197232356 0.9600506010361753 15.553011480404791
-4.459471644258878 0.9385948650347267 15.509961434292858
-4.41833539798311 0.9027211318805426 15.461747855616306
-4.379702194562412 0.87087662575588 15.416139171778955
-4.348824728430721 0.8503534155219343 15.376880452189354
-4.288901385728574 0.8069624702519134 15.307481028480684
-4.257742151491094 0.7888745324038364 15.26904070027462
-4.2082592017373495 0.7653907484209164 15.206546178345082
-4.166786993725053 0.7495804997990341 15.151766794741096
-4.122715423608703 0.7321824969708493 15.096740406611353
-4.08185264247734 0.7171060400032268 15.046355547992878
-4.030963067589244 0.6945498219113428 14.988931979110859
-3.9744193063993407 0.6677353937141843 14.927328006751846
-3.8914558083831023 0.6333246668575088 14.839247306425051
-3.8521750382886455 0.6214959058101943 14.796555807566492
-3.803250927120686 0.610247176974215 14.742654994985443
-3.7649915339041136 0.6026678010637081 14.700894225048174
-3.7124459659862694 0.5876469601843421 14.648530284032507
-3.650913707844971 0.5673519822615605 14.590991990910535
-3.595062571520206 0.5500153593725745 14.539806465224988
-3.5511306351967784 0.5374549660730796 14.499964318317947
-3.5013292701969165 0.5389220077436958 14.449210515511474
-3.437931565536833 0.533276697861572 14.390553161626059
-3.390589161406739 0.5362537044465734 14.345676807527873
-3.3347285006219414 0.540161040848461 14.294069757265625
-3.2846073300846275 0.5480562008049468 14.248413341853812
-3.238448906934866 0.5551080131266168 14.208000086821833
-3.1932696871074473 0.5590893886418105 14.170582427409979
-3.140871572009398 0.5560499066361553 14.130318292642212
-3.084241059050732 0.5511715374429711 14.088467059427643
-3.019394135644748 0.5503436808066189 14.039647679117149
-2.9651052998092133 0.5587914097743374 13.996779283182487
-2.898842535666204 0.5773679830317597 13.942995935498018
-2.8322206260919733 0.5939368019667768 13.891051673027139
-2.789376461708725 0.6067317574075526 13.85736870625318
-2.7345356218881833 0.6222298880408763 13.815276605435418
-2.67763776802395 0.6344449183862695 13.773122173031442
-2.619585429148911 0.6468623958254627 13.730855694352858
-2.5541168394213836 0.664200616405509 13.683047581145452
-2.4613910874689235 0.6963953873917514 13.61464426783622
-2.384242307190073 0.7169759712438983 13.560700028905273
-2.3256643864924698 0.7306209887100952 13.521039571518394
-2.2522669643750612 0.7549009058011684 13.470636679789795
-2.2074951506925093 0.7734080365183331 13.439608201857776
-2.1683384212121344 0.7902045905659545 13.412507252879209
-2.109907372631158 0.8157259249329449 13.372974459908555
-2.0514869091282537 0.841755278067482 13.334007537340671
-2.011630623803039 0.8646175000097216 13.307559919178171
-1.9651288044440927 0.8926961285931032 13.276558846738467
-1.889869983796661 0.917335857342616 13.23016706888485
-1.8298737205568103 0.9402721093942334 13.193741638820423
-1.757703703021786 0.9684055929749693 13.150952881893726
-1.7113165486863555 0.9878795258126845 13.123989059222602
-1.6478165498244133 1.016226699690801 13.088125193290377
-1.5937498794426714 1.0370105976604602 13.05844892585192
-1.539292140990476 1.0625380715274986 13.029024662168418
-1.4785162290692389 1.086704980996811 12.997863841968456
-1.4289022410167915 1.1076858020372864 12.972912573792666
-1.3676099619944766 1.1397078552076039 12.943905642216034
-1.3016411574399998 1.1708364826010484 12.913952612180061
-1.2580971477514522 1.190655950645862 12.895170759549107
-1.203388117428687 1.2146531409011558 12.873206101272842
-1.150595532891829 1.2357055648819877 12.85221288838651
-1.08614145896995 1.2606834419323558 12.829659577372876
-0.9955245931449208 1.3009356041009195 12.801871573270205
-0.9458256712822368 1.3238343278641374 12.7891945120336
-0.8835538798356178 1.3499780474364842 12.776194884374018
-0.811358313934611 1.3799789587625506 12.764310216526997
-0.7451243664240548 1.4092186502511534 12.756468387817577
-0.6782893559167011 1.4378700772491122 12.751492874608822
-0.609651943640865 1.4663384056096724 12.749797365641474
-0.5488588366044598 1.4911517974944708 12.749213066582229
-0.4680103673525271 1.5202165913209136 12.751658277652918
-0.39921645570520936 1.5412682124878723 12.755267509314052
-0.31948406755209624 1.561965887069313 12.76171201095094
-0.2569679654805552 1.5781634354487846 12.767834172664397
-0.18799676478447913 1.5933631847887373 12.777473140433948
-0.11750334546173735 1.6081407446988187 12.78885154595173
-0.04733368149748984 1.621444881080623 12.801655538217645
0.02360298955215323 1.6311689539627992 12.815667678412566
0.09379052195714488 1.6401518730909643 12.831797708574591
0.1622870565636716 1.6511330403553153 12.850060677671
0.2205559805547197 1.6613274244082739 12.867390371921822
0.3198788511078514 1.6710373171184614 12.898055747035727
0.409442502902289 1.6801901907636863 12.929442941643199
0.4713819982597447 1.69204260370927 12.954621200995668
0.533461283422699 1.7021443693126743 12.981504525081924
0.5947680195247522 1.7114879137271988 13.009505232268932
0.6533369034885279 1.7237431501494687 13.039133320239426
0.7307376852221132 1.7415923690021327 13.080650210693051
0.7927878677651345 1.7471401669717874 13.114059828770934
0.8475914989478888 1.755575939518681 13.145848580803662
0.89946585700699 1.7669934608608173 13.178360964209269
0.9504822207623711 1.7774234009201528 13.212068005530554
0.9970648085167229 1.7845466243437986 13.243365874561043
1.048896627193261 1.7907921228360806 13.279098294819743
1.0935826621660212 1.7942427009749826 13.311718272510397
1.156802364361213 1.80578085978303 13.363222807981174
1.2052788354993136 1.8155403412333628 13.406482272995927
1.2525341184057277 1.8256867224734394 13.452244181255683
1.297878782019426 1.8362360828752227 13.499561182052368
1.3413122392183907 1.8484053520967398 13.548818520018134
1.3834641855833891 1.8641472020500034 13.600568457241572
1.4233083489505094 1.8826463240496407 13.653750046805957
1.461949586446127 1.9010002568956628 13.708251455282262
1.4995377174224735 1.9169721645901419 13.764099305925502
1.5411056049503848 1.9347785077708748 13.828560868982894
1.5727057715196402 1.9415913950803967 13.87854707277771
1.60811438134193 1.9502465233384285 13.937125525508979
1.650667700464349 1.9614786078671456 14.013167578201319
1.6757703556535484 1.9582487410995855 14.057307564928092
1.7096500131907226 1.9460909269480666 14.11805240905247
1.742394899665157 1.9312599013720204 14.179943102655873
1.7924249495774713 1.921551064277125 14.290092393760823
1.8182681164075278 1.907143319063362 14.349916196750407
1.8457527118108135 1.894332572531729 14.420239659005507
1.8747370873554652 1.8873327444907728 14.50481017179342
1.9039065825797055 1.8704416057772173 14.601722129979862
1.9257887895591725 1.8488651491198649 14.675356531223073
1.940176057672287 1.8292367734869979 14.732194293348087
1.9559138290757137 1.8084865949643447 14.801857936345442
1.9683075088775253 1.7945976574759364 14.86917740757655
1.9801421805625 1.781257431100559 14.948078210784068
1.985093394658513 1.7757455976779069 14.9969827454937
1.9909310246723817 1.7692485322643474 15.054642868705919
1.9949993027797688 1.7616279013017104 15.11904882242278
1.9974612145340003 1.7596638479986693 15.183635674199849
1.998444592787226 1.7578578075263778 15.249243681184726
1.9972964061213712 1.7602228121187107 15.318983650637687
1.9941945897862472 1.7721313634602138 15.389186065622582
1.9904514488032459 1.7810043790143935 15.448799370872916
1.985495337200883 1.7841757910707132 15.52028553968541
1.9805453011795464 1.777627305082703 15.59075490679886
1.9747423140560354 1.7639709839633646 15.67181537810325
1.9679592738355391 1.762703880441686 15.733487050183648
1.9604762048674154 1.7595054104225092 15.80217551593486
1.9507097164321734 1.7452539621858412 15.890660994862923
1.9387770038585268 1.7447797303702348 15.974008834857461
1.921378752381143 1.754304269319353 16.073223608560298
1.9108994428326027 1.7481686914817107 16.14065173953006
1.8990173713321141 1.7396425756136384 16.21771845548436
1.8867229731020188 1.7397653291111252 16.28375617520707
1.8708072002794895 1.7399576665629795 16.36532189232821
1.8579326372347515 1.7329493911053433 16.436959736601022
1.8447219838329074 1.7400527659499838 16.49224727991372
1.8262325136955844 1.7504237036961872 16.568722542017436
1.811860249768472 1.7423959828971576 16.638620890909117
1.798513140992521 1.7457117165497538 16.696036844496223
1.7859631920185692 1.7443002129277012 16.750591055622102
1.7698227639361495 1.7461288648158604 16.81678681447628
1.7505624486588496 1.7513113795718738 16.891244639839684
1.736185950321007 1.7473585275120813 16.95531086869
1.7183140305494193 1.742668532427479 17.033890161069074
1.6990714913128064 1.7455345294697509 17.10783548287516
1.6877246035305427 1.7394747472781376 17.161909544809667
1.6755355144303734 1.7332866696056657 17.21429295778743
1.6611168176589493 1.7345943227838179 17.264222250986375
1.64733105012612 1.7332672268667437 17.313776148322585
1.62452618885558 1.7378694734355236 17.383568642539405
1.5927550437796882 1.7641126236364872 17.45217295099192
1.5718195208519363 1.7832073160926152 17.49394068855472
1.540221454467309 1.8134986156353037 17.550984685670162
1.5110817585385958 1.8380313057968891 17.603965702330076
1.4858619359388552 1.8547201010998666 17.652669387468006
1.446656044332872 1.8751748062687863 17.72851052117996
1.4277745760907403 1.871435637985429 17.776917012326532
1.4065497209150997 1.866426294341367 17.831241410799542
1.3740855901318971 1.86673698074196 17.90299849047156
1.3511152374496316 1.8657058773545812 17.952794754773567
1.3143870650525957 1.86880022739948 18.026512320615492
1.2848233463588818 1.865229362267046 18.089324857247174
1.252723536460957 1.859575923347772 18.15712730077272
1.227749124926604 1.8563222589055108 18.20794377359103
1.2037521403816962 1.8562876349823805 18.252684766382018
1.1634886873029706 1.8725961606507466 18.311755863892223
1.1276109284684082 1.8859775050063252 18.364062117879634
1.0980956762827638 1.8916202728060307 18.410698606310596
1.0436276014518637 1.908692932748302 18.48949292237109
0.9928531689786073 1.9352945202675853 18.55138995023024
0.9507118711930418 1.960167912600368 18.598398119703
