287
-4.5467683750176535 -9.196437665367888 6.940540277462018
-4.607244630088371 -9.188555723927562 7.0152412838584715
-4.653471055316115 -9.202761996393372 7.095237104405141
-4.685914567137579 -9.21632134921698 7.164467338460975
-4.718828895932221 -9.212612085811703 7.240240571516786
-4.748755726220902 -9.20111268211031 7.317183438619125
-4.774079075972118 -9.188810703191908 7.389645750293341
-4.791172227002149 -9.1795607212485 7.436782986044964
-4.81550658412774 -9.139584875182383 7.502786211624279
-4.840122849043968 -9.107667639005605 7.568422143851814
-4.859868081104565 -9.071432773184977 7.620019086663449
-4.890848318644441 -9.01482132098429 7.693860939560118
-4.9271311941166935 -8.940712431614077 7.7653517461054715
-4.959390583135235 -8.882723762360879 7.823593845535013
-5.00584399817713 -8.823146021592317 7.904937830997014
-5.028856825639808 -8.806748811062082 7.9486098389229625
-5.05960010164441 -8.786121815824753 8.002649642539245
-5.086997995320765 -8.761925206111783 8.048258133125694
-5.125181337793199 -8.721716273503901 8.108108537284318
-5.150092134880359 -8.700605384956747 8.148657329113211
-5.1793330381533185 -8.678948755643594 8.191580720503044
-5.216182868757555 -8.64347628693075 8.255685511766158
-5.246662270403557 -8.616147404693898 8.303710073276514
-5.296942381347333 -8.567873870442506 8.382446958837786
-5.344760161253478 -8.522043878976572 8.457246167374374
-5.392630494601028 -8.50924802903345 8.54128665936517
-5.42185373307548 -8.488777507425837 8.590083917748535
-5.452711638662139 -8.476020742218545 8.642840406206462
-5.487904864874116 -8.466410952002818 8.704610283482731
-5.524007889789413 -8.45606297525263 8.767436076173174
-5.55986628734163 -8.445279289612614 8.826787488011211
-5.5943612012687955 -8.433984303345907 8.884702618710952
-5.627757385143301 -8.421379937361344 8.940002359044634
-5.660352106617099 -8.410310949425567 8.993876925470765
-5.689102797373542 -8.40358289838644 9.041220442003919
-5.731791016278686 -8.386906671482176 9.111245230233735
-5.759395259805548 -8.377647034975245 9.156655612353594
-5.7902624224135195 -8.36602764123093 9.20484915761305
-5.824615816926569 -8.352559698846523 9.254907146270764
-5.8764787262866935 -8.328104851707355 9.321257397981269
-5.924832015519739 -8.302869194394729 9.37896479463608
-5.977471091443359 -8.285467637522757 9.439051183501494
-6.042361022310955 -8.270166915881552 9.513298889613651
-6.107513426901236 -8.240772811671556 9.584976581117605
-6.144168403937985 -8.225092245707547 9.633078178684853
-6.17337312800652 -8.225801669681012 9.683817124533805
-6.196435853590177 -8.236413863835612 9.74884179589083
-6.225094830205696 -8.242489379186793 9.842706523709133
-6.256810398454215 -8.245092377962445 9.961304757339192
-6.2791945949987324 -8.238466607852125 10.029035293889189
-6.305678261311495 -8.22267570189213 10.093762256606713
-6.3267842841639235 -8.21452062286107 10.15422724134205
-6.353107876062203 -8.206922183732942 10.238164670032765
-6.377247276134517 -8.2003393341144 10.32150255586323
-6.391117810597411 -8.205273347437554 10.393968854209241
-6.404038292864179 -8.209187170789294 10.468611575234549
-6.417147092265013 -8.207021586508455 10.533823295757404
-6.433872492889586 -8.196673419240934 10.60324867648005
-6.4642331710120295 -8.166515682524288 10.712305538791162
-6.4796972800230686 -8.148922597767056 10.776862053560894
-6.481996324315879 -8.147420906392153 10.841535765689184
-6.485740658097654 -8.140731402669608 10.904069172230022
-6.50464032341076 -8.10298954744848 10.992125451901194
-6.508309886137941 -8.085248016884513 11.051476463429248
-6.507916623286886 -8.06840182314682 11.113630636060865
-6.50452839499612 -8.046434662589498 11.185605488690712
-6.502316215891677 -8.016058016469463 11.251261040831483
-6.498121334757457 -7.987451313285123 11.304639627780475
-6.483549475063126 -7.940360073782706 11.397816712707671
-6.462496230135106 -7.904827588553921 11.477939574152687
-6.445770273284609 -7.869917617413245 11.541425178158311
-6.425461601399523 -7.843668315639059 11.598911625020266
-6.401592152784164 -7.815425918971784 11.661610368752532
-6.365948337528078 -7.782449383275615 11.741717444912329
-6.335931931532453 -7.75065162918849 11.80941475680817
-6.318085230496525 -7.727555208204292 11.851910333609961
-6.298409078252807 -7.70624626498732 11.894446847810052
-6.259422870816465 -7.680923512314888 11.961529230076351
-6.222094115833406 -7.663035834281791 12.019579020179329
-6.194163553871482 -7.651305983341616 12.060284726575084
-6.165405049806192 -7.639615264726746 12.100312969074594
-6.136680819124995 -7.627950844952997 12.140207693591348
-6.105984032971756 -7.616695396641738 12.180085588904223
-6.06946833698833 -7.605353608935351 12.225545025380631
-6.012238285469459 -7.587438950457816 12.292811228741556
-5.939719908287021 -7.564333501124981 12.375958343858084
-5.888248328501509 -7.552491857093841 12.427999182775153
-5.845149819814708 -7.542063274985873 12.470543197306394
-5.79941115871126 -7.530679557037223 12.513841982291062
-5.7585511766526345 -7.520524545165293 12.551520678846321
-5.718608852301119 -7.508898911743966 12.588415559517086
-5.65991226923167 -7.490763739426434 12.641201013654344
-5.605871271991604 -7.4764905154685835 12.687089827560586
-5.545585075846377 -7.475880519751067 12.728444499295035
-5.486165401673346 -7.473968279682546 12.768887117669038
-5.41319795776397 -7.455851663880479 12.825707966282021
-5.361197128903947 -7.445306869739379 12.8623000076206
-5.308778446791976 -7.4346459730060035 12.895649319053485
-5.24677866268447 -7.422186639025561 12.930888761497746
-5.145662311775431 -7.387562490471552 12.980743200694242
-5.088121470900161 -7.364813621750748 13.00199012551684
-5.028998297089088 -7.339480433490236 13.020630778610082
-4.968030917766033 -7.311204785992642 13.034468263074693
-4.900798941448273 -7.290102561741852 13.04461298417137
-4.83785807298804 -7.267284959598474 13.051179575980463
-4.785109135480345 -7.226336274430132 13.051510663895426
-4.737265768574073 -7.205687469731574 13.051465808219072
-4.671246943227524 -7.187710895607559 13.050195671152554
-4.602677617155304 -7.174511852635037 13.04633538295058
-4.532629353473593 -7.161454378372218 13.04032134700363
-4.453791568991823 -7.1498392021707 13.031965353635186
-4.386936888137456 -7.140821816713882 13.022476146041171
-4.3087620235988195 -7.121147995968233 13.00957472528181
-4.194157092666244 -7.081071211163346 12.984555332382875
-4.127792880356357 -7.067120348077253 12.970681507616437
-4.048898645406786 -7.052224096154818 12.95375187895308
-3.974321856444204 -7.041682530775606 12.937419296432356
-3.907175812324192 -7.0313524254341715 12.921209683943095
-3.854383200491957 -7.024322139236761 12.909247863835581
-3.755870970754604 -7.018217436840939 12.88731305699446
-3.6859922667311573 -7.00112217884251 12.867693399686853
-3.6186686660759655 -6.980573318311481 12.847007131889583
-3.516417091810508 -6.939716812849148 12.811533732745627
-3.461025949949935 -6.917944688238817 12.792560566599768
-3.39812894765019 -6.894311341365727 12.770219380404743
-3.327901745386052 -6.868411973507445 12.74473781122327
-3.2168593805628305 -6.830198445326641 12.705106334088017
-3.170306166664038 -6.808809436595264 12.684848268568686
-3.1109555793023556 -6.779303758415056 12.66036933777974
-3.0310435328707985 -6.750601718019073 12.627362511481861
-2.9515723887035588 -6.72777385050042 12.59781282459587
-2.8540697582102386 -6.713481026322414 12.56723953397313
-2.7621156399744073 -6.689029448501158 12.53484885749225
-2.705296114591249 -6.681590718501903 12.516055242098888
-2.646344357745103 -6.67611615250646 12.495943256911712
-2.588869093166382 -6.6731314344126185 12.475189525999243
-2.5422395679371093 -6.666829828072864 12.456455653873423
-2.467748276186159 -6.651586906597926 12.42253364987286
-2.395891055447613 -6.649009745543065 12.387796329729117
-2.345007501367158 -6.653779246381131 12.359951261789755
-2.291687918237248 -6.675740241631608 12.330354271736264
-2.20309747812822 -6.680819897102847 12.27015864795555
-2.101981808176622 -6.6884838176234265 12.193120534411554
-2.031623867520642 -6.692013179097735 12.13199853934597
-1.9630579559793377 -6.690848089513052 12.070606282488399
-1.9211867570198575 -6.694060358210924 12.030447643849696
-1.8709401608210892 -6.6936355663340645 11.981002015448421
-1.815105987636991 -6.6947238881042646 11.92283511505059
-1.7301194886777886 -6.7029992010447685 11.830095097210197
-1.6726887037029083 -6.722728276673772 11.763145457080096
-1.6294042226237202 -6.736307726470464 11.711991956022864
-1.5712235872417857 -6.736757208779624 11.644267053363631
-1.538352721147403 -6.745027322987442 11.604492270082485
-1.4945793963618745 -6.758354564102593 11.549074467457467
-1.4498320535867069 -6.770858991458057 11.493144494687893
-1.40563089684011 -6.783497496761125 11.436377296928454
-1.3621341817311272 -6.796576704624372 11.378731490236374
-1.3307265785322329 -6.806290756082168 11.340213250719478
-1.2732065784539115 -6.8280230468930405 11.262625301958847
-1.23861353413849 -6.8398287503171495 11.215723777427096
-1.172598629320228 -6.857759840635877 11.127910302209422
-1.0926150121241738 -6.866589263493424 11.022478878518017
-1.0206382072483933 -6.890342494835065 10.92274950325957
-0.9878330818049036 -6.905680256747121 10.876246264115087
-0.9490311554073064 -6.922479036627519 10.820924093300723
-0.9157763761689074 -6.935705840427762 10.773600820368012
-0.8761367246790935 -6.962764531532241 10.714052083349218
-0.8340712204599069 -6.989268286171394 10.651059578102139
-0.7805135539792579 -7.020766199519246 10.570412160918806
-0.7471637788626175 -7.039280688207051 10.520990147806005
-0.7147724335014782 -7.059683361323576 10.471282526047567
-0.6778439545918028 -7.083208832389537 10.415252211320855
-0.649690744422674 -7.0995049814469535 10.373035441328947
-0.6223768214069129 -7.11652407110483 10.331837014893095
-0.5984948016182198 -7.1420756718702005 10.293025009278963
-0.563920698511806 -7.18047855824714 10.235340998405013
-0.5234541087390302 -7.204386185792995 10.176789828962631
-0.48382449455918275 -7.226501448643716 10.11680165849643
-0.44538036103999384 -7.253034206666757 10.05437418858895
-0.3876023860877204 -7.278600190331714 9.96415251882203
-0.3406055642442311 -7.317647136401234 9.882776761233691
-0.30985865921711186 -7.350625112116111 9.824889277889161
-0.28977791242717366 -7.372790122789692 9.78453475817628
-0.2676630128426631 -7.396993645807198 9.739183830337797
-0.23949313685227455 -7.420001200179578 9.675667396754402
-0.21573544892406862 -7.435854353612214 9.621068153467688
-0.1954141919699202 -7.460088553777474 9.56535706291275
-0.17346025537371676 -7.498029298493346 9.49639564940861
-0.15545512997829455 -7.539011075754282 9.427888700933353
-0.13968815298528073 -7.568172787703945 9.362621248896614
-0.12195281321527565 -7.5989512421303465 9.276272135816184
-0.10940222983015599 -7.622118854431068 9.19427303006153
-0.10196257056354383 -7.67032979102561 9.101747518914687
-0.0984830382916935 -7.698680412021076 9.025727580048907
-0.09884688536542177 -7.7312019689956 8.926857423490128
-0.10797242509030866 -7.806827926424199 8.815469089736611
-0.11943556512882661 -7.872704003086773 8.720408155966252
-0.12984052251983882 -7.953265892711887 8.65934313129409
-0.1425782756828928 -8.00959368278308 8.59816929528682
-0.15481388436882046 -8.088256770575299 8.534090182527754
-0.16492612237420948 -8.129897031329243 8.485580595018307
-0.1772960087555522 -8.169602598471386 8.430286577845186
-0.1912527029597473 -8.209928189090512 8.37132470250056
-0.2075748771003347 -8.267070144877554 8.304169169521447
-0.22110524097462128 -8.318583562683056 8.252858604613035
-0.23191036630184877 -8.344857770709904 8.21092629392001
-0.2453929845654962 -8.376721102138198 8.164118146691658
-0.2626530192945543 -8.435460714341374 8.10142048430409
-0.2767089008815948 -8.4662930169732 8.051119744140992
-0.29698161403728685 -8.50947676817449 7.978189693237548
-0.3146194839823383 -8.54739277362123 7.915219009712779
-0.3291861989460541 -8.571662628652915 7.864152600913398
-0.34647338947517287 -8.595769035757206 7.810606548519454
-0.367217525578761 -8.659953458079846 7.738161664180385
-0.3798405295228794 -8.698313008496672 7.699706896932275
-0.39759518317731907 -8.74460680071427 7.649452506923883
-0.4164923231566876 -8.789637867262464 7.5985398387327034
-0.44153820990240433 -8.847206972686784 7.537575919806445
-0.4598364493786752 -8.870349021735745 7.493144539713106
-0.47987075342510166 -8.890884212900502 7.4460034037285965
-0.5129231513207578 -8.916872535272919 7.372662219002374
-0.5402592170097847 -8.949203538876754 7.320053055596599
-0.5691337089265992 -8.98533015422106 7.269397262469463
-0.6073954115012618 -9.034307503482644 7.210981089383777
-0.6333305215034709 -9.056243884595501 7.170926639751507
-0.678344591170669 -9.084098592664846 7.107691001720298
-0.7244656455573838 -9.106353754086557 7.0465967728275665
-0.7555630898432165 -9.11816600687788 7.008649245668067
-0.8196847219898534 -9.145217780530633 6.940472844863967
-0.8563867301132301 -9.162186001165256 6.9059262096111205
-0.9241456879052204 -9.17011955849403 6.840262618614176
-0.9855507411760377 -9.188967539365203 6.791737625220018
-1.0278066087239741 -9.201937728863467 6.758344964655572
-1.0895534266643334 -9.22816889613742 6.718547080850035
-1.1594014739917087 -9.255490487425753 6.6737610931401905
-1.2012908479262385 -9.260291821713448 6.644270643577126
-1.2664232579965162 -9.264142456235412 6.598376145825279
-1.3342477158912016 -9.274466507323375 6.555565903082524
-1.3982675757317422 -9.280835510779319 6.515605913071301
-1.4631239055095806 -9.28270332578979 6.475037727607438
-1.5065509738189695 -9.283010187646617 6.4482910593957286
-1.6028563102281084 -9.318696909638351 6.406620500091403
-1.7044895593623115 -9.37217616728394 6.371992550578027
-1.751722117453986 -9.393123593761267 6.355211420018219
-1.8034004241794956 -9.416042664540372 6.336850863382965
-1.9097950269580917 -9.470528086002307 6.307842337910301
-1.9590513467946022 -9.49658026234086 6.296488907647209
-2.0269059920267116 -9.529019326188937 6.277801674615523
-2.1038504017403508 -9.568970315188736 6.260627078026362
-2.158918953500729 -9.58727203336407 6.24613519656697
-2.2362967822231306 -9.612177382501052 6.226717516021816
-2.3125691745256 -9.642847860630459 6.211394048245435
-2.366971812997001 -9.639625277899501 6.194364425089109
-2.406102476192854 -9.637307991382528 6.182115733066755
-2.4687566154834313 -9.638271746323177 6.166910042409737
-2.5297242615102356 -9.616718260865028 6.147895126197719
-2.5774288908084184 -9.600166178717553 6.13640802366053
-2.6531362330058217 -9.56270953775522 6.1227091960405495
-2.710934300925533 -9.539425927045663 6.11791424144322
-2.778292414568213 -9.510970836620611 6.117340543667586
-2.836546883964776 -9.48169361244888 6.119802362485052
-2.897756959259584 -9.453318009645027 6.126332941573727
-2.964497525415179 -9.420842441662353 6.13764834140358
-3.03401402887955 -9.390176685817352 6.1536330937970245
-3.0967095031390586 -9.368787715558291 6.171526145893365
-3.158723322558963 -9.350497794153867 6.192096124173134
-3.219617099609384 -9.330779444699768 6.213787292971114
-3.2854847971837344 -9.3077594412089 6.238840188795289
-3.339589249762196 -9.299963245248057 6.260810427366897
-3.411326239900063 -9.289918968248301 6.292056364792448
-3.4828089647660208 -9.279021781288918 6.32089762495913
-3.5775368663973577 -9.280414460878907 6.3600812481465265
-3.6422831259016433 -9.277322994667525 6.38581662079568
-3.7072168600297912 -9.275125890858462 6.413244611037824
-3.771189801030964 -9.286051815044466 6.4422216106442
-3.8697417782607433 -9.292313842180533 6.489372575861729
-3.944240596781265 -9.293137479761281 6.526440886118065
-3.99354795753141 -9.291479861425717 6.552369628978783
-4.0426734418461265 -9.290258758860784 6.578729630349605
-4.1002034116888115 -9.289878893689265 6.61146891902914
-4.149236717139766 -9.287860112107172 6.641116448599082
-4.201738398440344 -9.281195846383792 6.6736633565808905
-4.290120508424701 -9.263530184556164 6.73057020289151
-4.3268205337966625 -9.258877307224973 6.756454883801814
-4.363539101422771 -9.254091106296249 6.783599823135328
-4.412050845253123 -9.242188916442919 6.821585395101325
-4.48933277326126 -9.216596806772909 6.8857856270550215
