320
-4.668139866182465 3.0877606086591376 16.885764917630848
-4.715954155309198 3.096562036291119 16.872571162511516
-4.786235831669214 3.111204347911028 16.849997455373146
-4.883029378082615 3.1367367376087545 16.812008149367255
-4.941909393453221 3.1473224413201573 16.792670796111107
-4.993864102213545 3.157552038999895 16.77459601859379
-5.0471879308591046 3.176277768209652 16.743861568056122
-5.108039029296874 3.197527682648821 16.70779290606344
-5.168997481561302 3.2111363579137615 16.679564836438086
-5.244094837382535 3.2251120184598827 16.644114048180647
-5.346494699144345 3.2191986213778376 16.626339708366643
-5.412033760077815 3.2176177160252637 16.60734072339315
-5.471025681048042 3.216097935688855 16.587791534325024
-5.53586433913752 3.2154466635409706 16.561777243397056
-5.588175206569378 3.210304162483946 16.54420719891962
-5.635134062411929 3.2041909345207893 16.527730186071537
-5.711834407390685 3.1887916901719935 16.505733561505565
-5.767258370635883 3.1813728568143462 16.47944805144811
-5.82235387977808 3.171856697020927 16.4535740290646
-5.880403359301957 3.1580614853462476 16.430350821448595
-5.93853135140711 3.142198129735582 16.40631735260011
-5.999993044096574 3.125441835052796 16.378945916261795
-6.052035240589313 3.110583947643515 16.354257823430675
-6.125103590895068 3.0912162216790007 16.313996404534908
-6.189466991585834 3.0725430495242874 16.276416635485813
-6.268841716995804 3.0492986989511808 16.22530703868038
-6.3208366006197805 3.0335025062625123 16.188310998358663
-6.39427369364027 3.006980021277095 16.136613982341192
-6.459643254361571 2.973214448758365 16.09768793565382
-6.509855873722752 2.9489316403086 16.060544467395896
-6.559055464307005 2.9244508555586455 16.02076440764208
-6.607688562581081 2.8968271869514863 15.981337164858871
-6.656729058368211 2.864403432086898 15.942665581651628
-6.706056684352171 2.8252924191477407 15.906748020028559
-6.758999381694706 2.7795028511389726 15.86685577281818
-6.802107230563194 2.7440805386358607 15.82515331752111
-6.846203436517016 2.7021088044573647 15.78408654417121
-6.881460889032588 2.6685626664137354 15.748744990257691
-6.916379530489965 2.634009053573842 15.714886748684297
-6.958709548059541 2.5903415978462325 15.6755541615968
-7.018542712216276 2.5314081798549237 15.613947024914562
-7.079001487582519 2.4727799463833326 15.543088522306359
-7.11632922987629 2.4393734932183255 15.489459379254072
-7.1668731235560434 2.3892441364202144 15.423650842852854
-7.200448053882735 2.3595544853690695 15.367945845536603
-7.240248400160742 2.326460996262669 15.291689584583697
-7.269110231443409 2.3040481259399934 15.229464763176633
-7.3002925762199 2.2764955805671763 15.159715568659145
-7.318583390274772 2.2643455461408903 15.109118117916747
-7.353072350480644 2.225735164786985 15.02387449212615
-7.380833948050383 2.1920377097384938 14.957074113275713
-7.415099693978951 2.131840384739742 14.87294754234076
-7.441236987376741 2.084705834437748 14.792766592547526
-7.458956505067126 2.0513410365563454 14.70804232386341
-7.473769778423457 2.0106227041584672 14.625255533632728
-7.4833163052085 1.979176923599213 14.564897683019474
-7.489788412581857 1.954770296563498 14.519020358787365
-7.497905948167246 1.9069459946995346 14.456227202360854
-7.50344449169856 1.8421989754402803 14.350751626175018
-7.505642235227648 1.800996255720615 14.300512903903805
-7.504358195296615 1.7553177130327358 14.236261138995097
-7.497688262604602 1.7149464978159505 14.154485694037554
-7.4878123741514715 1.6848662818224538 14.07641091014803
-7.480208279057785 1.6599799238895878 14.021743834739077
-7.472170944062076 1.6310994050201293 13.965726060667539
-7.4593112375013915 1.5846503203278326 13.88185919941775
-7.439094959147348 1.544285343020495 13.778545725941694
-7.4279056540087565 1.5125112726564263 13.720817325360606
-7.415285684795498 1.478468164379838 13.658368994038891
-7.402527529233585 1.4446550882623734 13.597032418293988
-7.390319365830309 1.4223484643717397 13.545012759856785
-7.371958950496912 1.3954361899483336 13.47093405748457
-7.348612293212066 1.371237499639716 13.385878904893776
-7.33299573627819 1.3555432037920285 13.32727188823717
-7.3147986085472985 1.3301710109139817 13.261806646426315
-7.298288582750335 1.3135846688025161 13.206137004878176
-7.28222413666242 1.2985238481297499 13.153057802927808
-7.261178709839878 1.2768993484578335 13.083115018350998
-7.237941006684834 1.254036984819498 13.010103734161213
-7.218133833000954 1.2352945483658813 12.944709268181779
-7.196070404750954 1.2171849367634158 12.87844394737338
-7.175923707194047 1.1966818067136478 12.815839691249604
-7.157395476598594 1.1762577849212335 12.76215098720829
-7.142620149341636 1.1591000037935153 12.716959606995069
-7.127648480722283 1.1420045563711314 12.671920679789334
-7.11214192518062 1.1252285410331577 12.62710960809757
-7.087849536165575 1.0998961389781137 12.559949030233177
-7.058178874129532 1.0694459526101356 12.476262983558676
-7.024726318384396 1.0434727064266527 12.387926404563519
-6.998366228998587 1.0105388393556343 12.315837980777577
-6.977292229235885 0.9811746076035854 12.260499858984048
-6.944462765900949 0.9443211867040375 12.176386685422212
-6.909402979548539 0.9098692256396719 12.089958625115639
-6.883356643052035 0.893958029209883 12.029327981691498
-6.857974430104542 0.8917463158902468 11.974596428700519
-6.825569866312827 0.8766958173153201 11.90359674815657
-6.770835549408807 0.858700515130165 11.789725481625783
-6.739483580261482 0.8670111615077829 11.731360467504963
-6.688962954087445 0.8816613162724947 11.641749138205718
-6.659518472330597 0.8979225591370232 11.595972335488536
-6.588677130899797 0.9233827377639656 11.485797263855833
-6.54016566621292 0.9320684661783796 11.411265140995827
-6.482485072008514 0.9383178790266893 11.325909139567845
-6.4217973118710985 0.9454980542561984 11.240367227057387
-6.379758934020654 0.9573743322331634 11.186045431377238
-6.335156829084666 0.9705711232208625 11.128351156735313
-6.285234402263554 0.9811423980004284 11.066433300800067
-6.243301719565619 0.9947725683201014 11.01694852282225
-6.1954019926194706 1.014299343002386 10.962719112240332
-6.143131818845904 1.0383916589326851 10.906791069977746
-6.1016552910712685 1.0530105900759645 10.862966275253317
-6.0502590241711145 1.067576694859624 10.809149556120225
-6.001347061265505 1.0825982105257506 10.760311932915155
-5.932063868799767 1.10067001440252 10.693263300250411
-5.865640718432618 1.095409599819587 10.62792614528276
-5.809324279713954 1.0912572653793484 10.575055294130223
-5.76214331428177 1.0876712606758447 10.532819994173401
-5.719237549285191 1.0894866978474784 10.496547347720881
-5.667014314787466 1.0916544340569505 10.453980507134052
-5.615470465335725 1.0882863908149405 10.413840773774897
-5.539969637012784 1.078637551648761 10.356521948106394
-5.500699543714438 1.0754682246971168 10.329061551857325
-5.47243444636459 1.073491471496693 10.309571735083331
-5.423400683331929 1.066876599360831 10.277043986349135
-5.366928233613163 1.0571432643403451 10.24153509963292
-5.300772932775856 1.0558049330930928 10.204042990223357
-5.224874004141649 1.054703877807631 10.165154744955217
-5.132219622568309 1.0524158529916 10.12466411578454
-5.0769607177265925 1.0536893985955196 10.104375163354852
-5.0131468431241055 1.0565974382718206 10.084264775811398
-4.947323983394262 1.0668189196629037 10.067326009618338
-4.8730631681747445 1.0772386487510657 10.051557006657323
-4.816705711136325 1.0799621148434486 10.042006933343647
-4.751550733710502 1.0827467196114124 10.03314466477396
-4.686281247499205 1.084106886198624 10.026798112642087
-4.624975636475367 1.086233058293561 10.022996236480594
-4.543196533324349 1.0760009085534241 10.021723852700397
-4.487220862416935 1.0717086201758317 10.022760846738535
-4.414190882659476 1.068272451420147 10.025638920521462
-4.349355580185547 1.0769840035072766 10.02798668105347
-4.280581003696307 1.0894914975035261 10.032387687399783
-4.179786591910301 1.0997402986032325 10.041284125637251
-4.098919916836325 1.0939817076657539 10.051366670804253
-4.029963459662646 1.0886042040712054 10.060842510934062
-3.953185479986087 1.0828145285637456 10.072198797265699
-3.892981902431133 1.0818271393103576 10.08079909726072
-3.8227854496843188 1.0822199639862404 10.090907820835174
-3.7523170765851503 1.0825482310561512 10.100998495075952
-3.6887003123748237 1.0857093495329115 10.1097769310385
-3.625342811947169 1.0964002413927636 10.11770610508038
-3.532908068193559 1.1144670656950382 10.129047182779495
-3.430458790342544 1.1069572235191396 10.145915665291973
-3.366140469438615 1.1003861604967637 10.15714550755943
-3.299266742881077 1.0935228488379485 10.169603413458574
-3.23304644452294 1.0854659889519729 10.18238164729349
-3.1709780790010464 1.0772274591951527 10.19492546155087
-3.0999482557222855 1.066772846556857 10.210106685908645
-3.014449904058183 1.0595565755197205 10.228880457941091
-2.959785956940256 1.0540180963961427 10.242147484198107
-2.8524908202227435 1.0466329147863176 10.27002278351437
-2.7848881993817383 1.0434591359216263 10.289208600733105
-2.717695159456995 1.0402401368991647 10.309597500931613
-2.6523870361211515 1.0381609742213618 10.330269198073996
-2.535555871625381 1.0376753053606507 10.372866576552582
-2.456389283601516 1.0069710233606042 10.406448872625262
-2.3716701570958305 0.9825476619947073 10.446719697600983
-2.2854175657950435 0.9725576293485965 10.490941287541798
-2.2342209693937463 0.965718355729428 10.519802916421874
-2.176081035892559 0.9545559003335633 10.556009236298912
-2.1195043464296504 0.9413067558134509 10.593763528951833
-2.0655229665260793 0.9247389518506379 10.634646571786643
-1.996605893374369 0.895325592083025 10.69252021250703
-1.9348267670861707 0.8621935001750884 10.75144973859397
-1.8985601141936579 0.8412689045625958 10.789601703610892
-1.8590134291160645 0.8096044252562864 10.835171923077414
-1.8206881258346836 0.7762575651031618 10.8824843178928
-1.7812649005739405 0.7577097099413397 10.930811425350647
-1.7299623641188444 0.7270244008666946 10.998127209367421
-1.6932824030168945 0.7040658083392133 11.04870119208287
-1.64692978281417 0.6763055133148388 11.115043954553503
-1.621569052303268 0.6552879762156545 11.154276530550543
-1.5901223179522113 0.6260593392684601 11.205055285394778
-1.5554454316363735 0.5876810747129655 11.263939191693467
-1.5233617603171363 0.5532887074811095 11.321170619938545
-1.4917477775112746 0.519567478933495 11.377828821818959
-1.464136433500217 0.4869808245107343 11.430820518191528
-1.429874558848856 0.45401850348981476 11.494212225724613
-1.4051062945683572 0.43004626969453685 11.540964849206578
-1.3704759201857457 0.3862038602090969 11.611651443643556
-1.3509485263107877 0.3638894665253316 11.652123178763741
-1.3215101514391283 0.32647492763379216 11.714881863517643
-1.3020719105883303 0.2967817545871698 11.75907679496662
-1.2859151937685898 0.26326807482534864 11.800360600187492
-1.2670222138605771 0.22461596760186175 11.849151640071987
-1.2328198383108457 0.19298208730523747 11.920749702197082
-1.1953611855433763 0.17648490357885027 11.992716085473088
-1.1684758824872197 0.13370326315898495 12.058824089000026
-1.1338863291490253 0.10960431592874276 12.132651823402554
-1.1037740407743386 0.08477900882952394 12.198980246173818
-1.0833218036709007 0.04978328525870346 12.25381875429763
-1.053176628120628 0.033498421528419975 12.317332613997714
-1.0096068822834767 0.008642510503552359 12.41212138225491
-0.9731846187629789 0.02032190570872139 12.473924128195698
-0.9344124524901121 0.026258829287141516 12.544790047682824
-0.8928657577099295 0.008176656036233076 12.640897117505833
-0.8594229751730662 0.035541417579188384 12.694974742712095
-0.8280964486047044 0.035806542643139316 12.761008138677305
-0.789419143117498 0.02382249765682598 12.852090168702194
-0.7488569873328048 0.04525486526012923 12.933298576098178
-0.7212792893144062 0.06871831235972614 12.986229599127093
-0.7005110312036127 0.06857579148882831 13.0369087250115
-0.6611983422414389 0.08070487423048611 13.087655389487487
-0.6418519012384709 0.11224397245561324 13.129785781615436
-0.6246306707818667 0.16089862402786892 13.187428328756354
-0.5890818480852227 0.23974933360952821 13.265270058516272
-0.5634056098349287 0.29653359081138486 13.327988448863412
-0.5335692224362711 0.3690096411558166 13.405302902809016
-0.5153019144767046 0.4131613094117048 13.45737135079218
-0.49798266452192763 0.4524492305128529 13.510015401521812
-0.48402642074812796 0.4975355949938125 13.560330360571953
-0.4704529598023113 0.5055945259638266 13.60883896371124
-0.45074200516352025 0.518659513984626 13.68355919982793
-0.4331308919298893 0.5179581944222393 13.750648322360359
-0.4156168434795906 0.5234937278701599 13.827654714141136
-0.4039637761689261 0.5289884408646541 13.879042580503135
-0.3925183012688871 0.5360186281981276 13.93864706812774
-0.3758010459406673 0.5471947376008996 14.04370885701637
-0.3649594000226113 0.5491619060994255 14.1300828766338
-0.361072060047515 0.5565384886541915 14.180926788144117
-0.35839436516971634 0.567145173162225 14.249069397434031
-0.35678579467385907 0.5715583252673531 14.322829626132918
-0.3566720686284146 0.5722646440640871 14.388697504491265
-0.358862749998484 0.5655993667446841 14.482305631850327
-0.3649627009290324 0.5896342503868892 14.534428893453121
-0.3793144263748882 0.6412065046673456 14.618662976651404
-0.38925734407017387 0.6796043478079339 14.68070385576874
-0.4025669648034387 0.7005635684617788 14.746277212574324
-0.4118622290856626 0.7309084880636645 14.78918867597557
-0.4262936986819845 0.7840398684031582 14.833689953012733
-0.4440682638901414 0.845585317838947 14.889286281013717
-0.4546871293770449 0.883254588121658 14.920404734200034
-0.46726028003968834 0.9235566675739237 14.957504242105347
-0.4803796927638726 0.9498541827221372 15.002709845897407
-0.49852079970689855 1.003235574569497 15.059174701310816
-0.5133599440197631 1.0484588168789086 15.10050899365908
-0.5260850618110022 1.0867598870273492 15.135161958649029
-0.545047916203599 1.1396369309016974 15.188597005628004
-0.5616824310876871 1.18064539744626 15.23818061874552
-0.575615884051313 1.2094305125109885 15.282614416908775
-0.6029146590734515 1.2544631527412458 15.378578102471725
-0.6252929793394046 1.2902068475569761 15.462928269094562
-0.6427363790260414 1.3063099108210432 15.536948545808851
-0.6606466630294512 1.305607761572321 15.614603546846926
-0.6931750986418468 1.325314340272576 15.746360074184452
-0.7100162472144538 1.3362082705133362 15.81475625403652
-0.7337804219186159 1.3558646235101142 15.903565863349822
-0.7515884153229537 1.3668877229020326 15.964588091344272
-0.7749492831877713 1.3872059906539667 16.040717810076725
-0.7943166070287995 1.407184545008925 16.097974275783773
-0.8141552624211723 1.4216333223040403 16.15386044533932
-0.8560864052710069 1.4445788326904205 16.261666290308874
-0.8983691199970374 1.4510118260595695 16.36105960966985
-0.9315855601755727 1.4544168148438414 16.428773970810916
-0.9628343860614845 1.4779832253557492 16.484060937334117
-0.9928540159941686 1.506052026138371 16.528743670207874
-1.0296650229434392 1.5593413472544944 16.571850355093385
-1.0658399184785798 1.6069804685405282 16.606529159515485
-1.12484374218025 1.694878233841112 16.648988933973424
-1.1642262645427195 1.7339597894836247 16.677722146528808
-1.2202796483751572 1.7861036373125687 16.71358210757919
-1.2689588244889887 1.8426674981743352 16.734225267196216
-1.3189719896382601 1.9049473029416744 16.748986313412413
-1.420879805959879 2.000746328161539 16.783224901053863
-1.4852259992517745 2.053449356158441 16.80439218095204
-1.5349926276432022 2.0952273019142913 16.81835260809066
-1.5901917125480498 2.1413235319330566 16.831446344333504
-1.644168354802269 2.166856352510293 16.854495611218997
-1.704509353561443 2.1930499327442794 16.880733347702453
-1.7630456877822414 2.2225571956521426 16.901814390125406
-1.802901886047545 2.242649106955164 16.916168782683553
-1.832454908485217 2.256846572519284 16.92669504992836
-1.8845169506748727 2.2809369553895946 16.94513608074359
-1.9466187994024056 2.310469029002946 16.967488400713012
-2.010741270986042 2.334821078059046 16.990432502339512
-2.0577438667990773 2.352104683698877 17.007604401635856
-2.1546889393147834 2.403363387718122 17.029624080906753
-2.227189020179914 2.443230943423859 17.044225219832146
-2.289940714018364 2.4757593480125193 17.056312341360172
-2.358467759561817 2.505639497635303 17.072982337818434
-2.4400340785549384 2.5505280062757025 17.08347587967724
-2.516228342561818 2.593021119744166 17.09047339872472
-2.5804967693021164 2.6253168397019744 17.09679549430689
-2.661823461521573 2.661940157533066 17.10657846797628
-2.765760471313195 2.70902653483368 17.11481034788833
-2.8187920274882527 2.7293871821194235 17.120288300247115
-2.8800548036315297 2.7550834366120798 17.122130773664487
-2.9456051479985446 2.783870239520975 17.11962091771026
-3.0105205571920495 2.8109178704790727 17.11400168589235
-3.075446229664358 2.837640547012689 17.106715918688206
-3.1506591607378596 2.8674580631361595 17.09610208397905
-3.205483888355305 2.8877092796063026 17.087662310636016
-3.2799690714185417 2.9112324402651337 17.07762240962263
-3.3450186892596108 2.924541634261856 17.074629654420548
-3.4144954468220776 2.936937705220399 17.071781893975526
-3.5089907595531615 2.954750901812072 17.061676141502264
-3.5978603679403083 2.9742108595957157 17.04773093946966
-3.6661115730011193 2.9885978757702185 17.03595234107389
-3.746915478384702 3.002642443604201 17.023048254412284
-3.803292346467787 3.006857529042713 17.01963407795217
-3.872346934327209 3.0112894907646757 17.01413441217804
-3.9645157191061022 3.0178751294653194 17.006277301915876
-4.030044158978171 3.0231681219823985 16.997719768215923
-4.103626110020759 3.0300536434164966 16.98599719744734
-4.182304833628178 3.0443653431653823 16.964005044277627
-4.257385219351319 3.056401036557401 16.94584624784518
-4.357385380816601 3.058545558860202 16.937392556149835
-4.419216907758819 3.0593641439777697 16.93280143104205
-4.479677140508608 3.0611559305671134 16.927072732703156
-4.544278280485291 3.0665506535846445 16.917400420874692
-4.619032739139069 3.0791655559708095 16.898449905124412
