491
-25.91792124482629 -14.038060613124674 -1.3460475264144751
-25.950048475379898 -14.03443923419881 -1.2975188134853628
-25.981416381219745 -14.035208597467696 -1.24723799297535
-26.01259019681096 -14.03678529102389 -1.1956569693246877
-26.04430105832678 -14.039422270678772 -1.1428281286253554
-26.076245593850228 -14.042189094103346 -1.0889862124389982
-26.109765215929468 -14.04206569344984 -1.0345679975625224
-26.144703460942043 -14.040710707892542 -0.9794253126343193
-26.17935819996329 -14.037893619808626 -0.9231426075352722
-26.209340243776012 -14.038003367763826 -0.8702268081530153
-26.231303546863465 -14.041410147091934 -0.8244113573019547
-26.254536057531876 -14.044795821733244 -0.7750663786058869
-26.292616205461847 -14.046755017740447 -0.6932289597944745
-26.321355133444854 -14.045588981895925 -0.6294760591466915
-26.34903924345815 -14.041905348498087 -0.5633059035812114
-26.37578532503068 -14.035972759083544 -0.5011569129985105
-26.396212424406645 -14.02799474161861 -0.45025624286704513
-26.417941221715214 -14.018719064338326 -0.3923732321419289
-26.433992682689077 -14.009234825467347 -0.3455159487041479
-26.450424252217882 -13.999082727719012 -0.29848634328504353
-26.465264858559753 -13.98828581472761 -0.2510498229681266
-26.478704941265253 -13.976733537485478 -0.20267809475120124
-26.489040886650166 -13.968697091394917 -0.15180774015564857
-26.496520240798674 -13.960644176993258 -0.10035010149596779
-26.50420386212166 -13.951147206607052 -0.04190608492640191
-26.512834629532357 -13.935000826045787 0.05659103076627048
-26.514279043542327 -13.924265891646352 0.13187776832054965
-26.513527622319067 -13.912896764522344 0.20415704433820636
-26.5118711682023 -13.902341376915208 0.26573027119766923
-26.50866393681079 -13.890327833903797 0.32881472427529523
-26.50544045719169 -13.877979349420825 0.39390312064583277
-26.50118173023572 -13.865359222197359 0.45552966336197365
-26.49890302637268 -13.840933614594032 0.5331268928723967
-26.49749143939138 -13.818239392236704 0.6001418016696043
-26.493437014416386 -13.791665546655224 0.6819815900428514
-26.487262853045657 -13.778763567312945 0.7381863185097615
-26.480475084795206 -13.763631015762241 0.7992754469739971
-26.477002805066057 -13.730354137945904 0.8819669166937647
-26.471305472264472 -13.689833004345534 0.9871480183238415
-26.46790509997397 -13.673030040146994 1.0344476763834116
-26.464150290430172 -13.655905903019635 1.0817282340268477
-26.45870364240516 -13.633347964787935 1.144859762093338
-26.4516592337022 -13.604671229651936 1.2251044552452157
-26.44291472541065 -13.57505137276776 1.3103854474724468
-26.435235189496503 -13.550758548142808 1.3808955684733917
-26.428102660119876 -13.525824063285969 1.4508272863556124
-26.420100808073173 -13.495730886739544 1.5336502429755914
-26.407574057082204 -13.466526653815828 1.628490725709244
-26.3987952250926 -13.446997502318467 1.6935233509044156
-26.385623755230487 -13.429242035753834 1.7696827709733256
-26.37122967700545 -13.4103348151718 1.853114913737727
-26.358100612385204 -13.386446898632576 1.9421296693142711
-26.34993409248799 -13.370390277777195 2.0006525829920996
-26.340464006005412 -13.354959380707989 2.0641041945450542
-26.33191908638967 -13.340969115332689 2.1226524534685103
-26.32266620401976 -13.329633364768185 2.1793017623861584
-26.3120719548115 -13.317182524570782 2.246386204657683
-26.304783349369796 -13.307888644133063 2.297569989551911
-26.29464128147958 -13.296922105889358 2.367534697169223
-26.286336937023552 -13.288814504806751 2.4271011822405235
-26.27934121373787 -13.280918086705576 2.4842441433147915
-26.273325507131773 -13.274014519422812 2.538483071124494
-26.267415522430227 -13.26840806190539 2.590632354110719
-26.260643789165734 -13.26121083287126 2.6643917943046667
-26.2570105112109 -13.254063550325228 2.7217311872420886
-26.252530571283902 -13.244510033086085 2.8000913355719685
-26.24877904929784 -13.239265428131485 2.8612962673096867
-26.24461090092788 -13.235515248010111 2.9208352795252104
-26.23886520546085 -13.232412259441789 2.9881462119058106
-26.228517280380885 -13.228764161916558 3.08405573994098
-26.215177310071727 -13.225336887533894 3.17566178931037
-26.2023089159284 -13.224315921026928 3.2371046489680513
-26.188783248563304 -13.22213516684408 3.2947173948893047
-26.17267638348511 -13.219696248869793 3.3532622974149024
-26.152370115354767 -13.219927946233115 3.410438538934973
-26.120937119834107 -13.21255627368001 3.5012731840701488
-26.099941934583452 -13.175161333436977 3.5949408560807297
-26.06870171084397 -13.148940476243485 3.6916077068693
-26.048962877938003 -13.133470664413357 3.7503404776511595
-26.01873315381286 -13.107505610966626 3.8414395325677586
-25.995215887281113 -13.082871466814165 3.9147020416549463
-25.971213321880093 -13.057996858152972 3.986911528168838
-25.951614986432787 -13.037471412894375 4.043354488884068
-25.92850006374722 -13.01336603255937 4.108878094428293
-25.908034559157894 -12.990254766919588 4.167628150749894
-25.88699023941671 -12.965279653658868 4.2259877098687815
-25.864720337717678 -12.939899053990876 4.2846560728331
-25.841144601874483 -12.91361427558375 4.343451335767006
-25.80899445864281 -12.878190202363832 4.420687350141915
-25.773677875770307 -12.839720110094696 4.5010374567658396
-25.740720562289944 -12.797467788890902 4.575248339946866
-25.705054278233337 -12.740962417334474 4.660544633216874
-25.684126704482086 -12.707823516294734 4.707021500867381
-25.6522534616743 -12.663984460706658 4.770360479586218
-25.626042916237935 -12.631612896179863 4.817140203515825
-25.599659721539272 -12.593332501830652 4.866157557782985
-25.55966967169657 -12.516115113720337 4.94481282991582
-25.515319963734296 -12.468774877246172 5.007733776660734
-25.460750134727178 -12.41191625654129 5.082087897317905
-25.422707265343618 -12.36970415171373 5.133494023736759
-25.39156485480762 -12.332809888762247 5.175703526086174
-25.340207473935518 -12.274764306224213 5.243351678916179
-25.282843263730197 -12.23047094383043 5.308398597465443
-25.24087576325293 -12.202347212434606 5.35337172512234
-25.192666725279377 -12.17113968344556 5.403890471240108
-25.15118728166797 -12.142656225924744 5.4466162556935185
-25.10639495278226 -12.111002985554933 5.492066001070899
-25.05877556527432 -12.081996151517636 5.53783003364652
-24.996166910034166 -12.045889714094459 5.594997480599003
-24.960097954476957 -12.02421677996724 5.62809908603462
-24.912571749014024 -11.99144486875738 5.671617823779474
-24.86454120872344 -11.957739356041566 5.714293956991847
-24.816299184285125 -11.924337033609493 5.756841275470077
-24.755376792625864 -11.88068305414579 5.808971426084039
-24.695933562052954 -11.830851839627286 5.860255210208219
-24.639454346286183 -11.783115497761553 5.907014624877322
-24.57064496639554 -11.724616349217303 5.962039342686323
-24.518657793745902 -11.672960349526168 6.003627749571336
-24.483757317530834 -11.638451579368644 6.0306041703786875
-24.441101978208245 -11.59693178159596 6.062054895928258
-24.387726848344624 -11.550143283370122 6.098258225604896
-24.353455458534548 -11.516498270398518 6.1212397522207915
-24.31212695820153 -11.474442257239064 6.147988549028134
-24.26084908407037 -11.422553479894919 6.1794581292330575
-24.18288440370967 -11.34491731999853 6.221250424564126
-24.13987227906942 -11.303165529347083 6.241015610954625
-24.07301250867093 -11.239610209670273 6.266985150776129
-24.004750844016662 -11.186718452403365 6.2852863537007435
-23.930508041636745 -11.116492472647778 6.300012958944555
-23.85135964422312 -11.060466675943527 6.309284003132691
-23.77038181534047 -11.004000087388842 6.31434669861782
-23.703438748108404 -10.963052027911266 6.316108859995603
-23.66009397478266 -10.932881507909556 6.316040360126069
-23.615258341319876 -10.905105682247935 6.3151233922542716
-23.54099392152374 -10.864602065760677 6.311841034291406
-23.476265667684547 -10.823086127114387 6.307519039595493
-23.404396841894133 -10.77886493026077 6.300858818937166
-23.33243610320693 -10.738196551605908 6.2930794807442325
-23.282733505328782 -10.707644182388162 6.287103074225756
-23.232775986212953 -10.67562172887045 6.2804647456052685
-23.182085936892364 -10.636032898639185 6.272442367620657
-23.13006222553785 -10.592085275937759 6.26358787624255
-23.08999339519081 -10.556326081158922 6.256894899811748
-23.02299280954325 -10.533882088353742 6.246324722735794
-22.96805761709651 -10.513388302034038 6.238150413939233
-22.913239312255765 -10.492898766402082 6.229398810911919
-22.81946609296855 -10.458976910527607 6.213784181222854
-22.697674297371535 -10.43314859982184 6.194111276162598
-22.622901746996476 -10.459990834626735 6.184059869691847
-22.55417927632318 -10.48148764727932 6.174216306564917
-22.47797948752855 -10.511943217263449 6.163209181633145
-22.430428596726856 -10.538939447201487 6.155973404705996
-22.377828168421143 -10.564556117437654 6.147372969220544
-22.336569524187823 -10.6106300345833 6.143984149646016
-22.276123353858498 -10.69536240696328 6.137153316463295
-22.207607743698517 -10.777517544472824 6.129726262229337
-22.17426916243792 -10.815993365844122 6.124048682604868
-22.134564317374796 -10.86113728117116 6.117118256800819
-22.093848894282992 -10.9072496296458 6.109070886873335
-22.051840124694365 -10.95456717096146 6.099932963177567
-22.009086903680277 -11.002235673709283 6.09053651860584
-21.965473089843318 -11.050525198595716 6.079928670873488
-21.92125423750706 -11.099149046870119 6.069030054358357
-21.874786994625094 -11.146067010947633 6.057074472121203
-21.827337811076085 -11.192695827975573 6.044699792852976
-21.77947337394772 -11.238943830334247 6.032019782868085
-21.729931828326524 -11.283780981170846 6.019024862429333
-21.677429512562412 -11.328291633514118 6.004841989710853
-21.626398990842336 -11.368090487067636 5.991358075168071
-21.561271339011792 -11.41477013743967 5.974414321383204
-21.51615349152635 -11.443108401006405 5.962827678520033
-21.456821608255666 -11.477240114917073 5.947866070421098
-21.401162912715794 -11.511769531903346 5.933731253504961
-21.345306968471338 -11.550930707222813 5.918287069956618
-21.284657180385608 -11.595262038938682 5.9012539201598795
-21.234022638492277 -11.626023171619973 5.887356741021683
-21.168491338553608 -11.656991184025163 5.870552269225971
-21.09593199819368 -11.687751511202862 5.852259690655716
-21.03761523835999 -11.705941432938282 5.838058409938444
-20.948780528686065 -11.733135826001638 5.816792540041195
-20.90326867664112 -11.755707547273662 5.803044020874124
-20.85961008889981 -11.777752945713765 5.79016393474925
-20.815412496833755 -11.80007100220376 5.777124789441324
-20.770706965570607 -11.82174584822123 5.763869333863065
-20.704212526150013 -11.847924960433629 5.744332324983976
-20.644014667929927 -11.875434727474845 5.7262206231025345
-20.59213328505301 -11.899112274299341 5.7104838102652185
-20.53671454215745 -11.924202474765607 5.692819586228329
-20.48363409603514 -11.947624649191386 5.675712140579947
-20.423625578004135 -11.961396944203438 5.659174326692002
-20.361581634480444 -11.971374375094047 5.642965328991547
-20.28265173772419 -11.9845765962142 5.622972976137783
-20.2284281164876 -12.000521986741822 5.6067264958305
-20.172700045125296 -12.01743757327747 5.590266097764276
-20.116960352717566 -12.032078052683149 5.574421419452351
-20.04088357584676 -12.044902533918371 5.554052134623116
-19.97367511303987 -12.058064133959544 5.535455490878329
-19.905342578207147 -12.069592461317507 5.516856433645323
-19.835833080329245 -12.079372041717525 5.498253432856261
-19.74272445434631 -12.089852808196518 5.473552379722063
-19.66901342261244 -12.09112270562255 5.454914803725963
-19.620019515233906 -12.090617710664262 5.442651125984934
-19.544536527129242 -12.088628662109246 5.423796082603468
-19.44231414136377 -12.088308661410421 5.397558651417787
-19.373543242377043 -12.081035716463306 5.380738456148025
-19.323761073788468 -12.075989103638353 5.368258881808368
-19.274284600099595 -12.071366059336018 5.3557886454703905
-19.2249297393254 -12.06633672371358 5.343180679000946
-19.175839569651956 -12.061428903132196 5.330609914148969
-19.093547447771478 -12.053696750767838 5.309096689879821
-19.028559214295797 -12.03918438461604 5.293010700023652
-18.961390704215127 -12.022187120222815 5.276066373766152
-18.88104724593931 -12.000269189290261 5.255951703967753
-18.827652818986532 -11.986296571688383 5.242638612529558
-18.741372771316442 -11.974918506320078 5.217935114887638
-18.638994948335945 -11.962550534561043 5.187770167689344
-18.546912774163715 -11.963078583382309 5.1579291941071315
-18.485853874187463 -11.963925583331136 5.137732856703208
-18.41861961262451 -11.964453108150222 5.115441365789284
-18.348129576253406 -11.955497443437215 5.091938286628965
-18.283070396994862 -11.934756165904675 5.070451472846038
-18.2085096248241 -11.909864050198406 5.04521119976658
-18.14461451643397 -11.892813178512254 5.021800463561924
-18.073338322367867 -11.874231511367817 4.994787407767552
-18.01868774891879 -11.855607447084367 4.971835202964096
-17.96337934318206 -11.837816961465936 4.948174583132282
-17.910010834465787 -11.823732142366573 4.924108858284626
-17.858279012645777 -11.810485021490736 4.8998111945198906
-17.793767736945142 -11.794158424358693 4.867761672689285
-17.70841634795469 -11.758472780799146 4.824282346515086
-17.660108360047463 -11.737756229791968 4.798254631638592
-17.61296928221546 -11.717536125374052 4.771339591833408
-17.567028184637003 -11.698428374872805 4.744852594076633
-17.523055557559747 -11.68182722427342 4.718828450541656
-17.480294263997337 -11.66578920820316 4.6920285719942605
-17.438406653521582 -11.650016445139173 4.665216104952335
-17.39706881693676 -11.632212229453238 4.637516780457637
-17.33862256348693 -11.603050591991572 4.598050327651644
-17.268874010879667 -11.557256614207173 4.549758132652043
-17.22835339785598 -11.528898778550092 4.519944394327274
-17.170001936031273 -11.499264319099352 4.475125523672652
-17.112562639898357 -11.479972869553457 4.42874854157529
-17.067423395186758 -11.468397068628683 4.388265886353842
-17.009995601099888 -11.479794717301527 4.338489034425384
-16.946168253894353 -11.523782665615958 4.274743003129728
-16.914266867389067 -11.570466177750333 4.24066215993256
-16.86307093652188 -11.64396249639958 4.184402666297968
-16.82810144167911 -11.72459849818464 4.1408388054790315
-16.80308626274035 -11.7693549463002 4.10749964855467
-16.776361563841018 -11.860111753954055 4.055367546719399
-16.756912770947547 -11.912015020782768 4.018246489056966
-16.7315659744413 -11.965595908363907 3.9694433751550675
-16.7114240947599 -12.010653852960473 3.92731447214533
-16.692605441158683 -12.057301900251213 3.8847834500570047
-16.677527587608736 -12.098575567928943 3.8471288571162376
-16.653461945321197 -12.146633125084076 3.7948786852787415
-16.63542146855105 -12.183569707943397 3.754133544071215
-16.61440974238696 -12.235456075581489 3.7011666998195136
-16.59459901976082 -12.279716731420084 3.6531398641379527
-16.566872657035375 -12.339867411821896 3.585741732993624
-16.543770550771832 -12.376710952697579 3.5360271997528256
-16.51946166149498 -12.408915077404709 3.488852625915201
-16.49159696288293 -12.450396542833952 3.4307894868806903
-16.4636909655891 -12.492702242328548 3.371891196047044
-16.4385573552808 -12.535956962700192 3.314306382242206
-16.39292896943171 -12.593771287682888 3.226179274018822
-16.364222278706823 -12.625747330849695 3.1745127078981232
-16.343428735731667 -12.663947762036575 3.1278235330582156
-16.31586554150412 -12.716771684458312 3.0647124182275913
-16.290960843340443 -12.768371606617436 3.005068853477569
-16.27608747170732 -12.820885708041969 2.954840938728914
-16.26160016395769 -12.868647697778052 2.907285431461707
-16.24700756531592 -12.916520898486706 2.859729252087993
-16.23673582792394 -12.958987355383648 2.819084009460598
-16.23574586550662 -13.026122782082156 2.7699796840056816
-16.233846977409833 -13.082142521591932 2.7256115121188476
-16.227932937009694 -13.15030942472117 2.666511831495601
-16.218914989805903 -13.21826753252997 2.5998474882390594
-16.21242044733319 -13.266071223154032 2.550195755773233
-16.206803263555557 -13.31242794987555 2.4989965656247577
-16.19663311772862 -13.3703581652682 2.427828337254353
-16.18315945763464 -13.419411962965821 2.355869691309529
-16.169864791494383 -13.45650633286989 2.2948741548136535
-16.160422045218574 -13.48883580709999 2.2403368012283007
-16.156313152454338 -13.53516134377138 2.1690614935042145
-16.15583550361853 -13.571493240878556 2.1120144555351175
-16.157110848244347 -13.606787582875407 2.0544109934261208
-16.15792541534451 -13.637605936480163 2.0021983126321867
-16.157803958186708 -13.667757163710315 1.9499602101184905
-16.161172139660057 -13.701500362989309 1.8966149828131602
-16.168873545950518 -13.730612798333345 1.8514053612162256
-16.17615459692669 -13.778046457166951 1.7814572793924377
-16.18580619585379 -13.826232536666504 1.7027548558735965
-16.195604931887043 -13.85791205921758 1.6478127775000377
-16.203989770108617 -13.886645547319223 1.5983991014177423
-16.212734510433567 -13.916014960956009 1.5477434581746854
-16.227338186700052 -13.964788868441275 1.455209195577627
-16.24310045267411 -14.011047424022312 1.3604403224144042
-16.25908103387157 -14.053007361839018 1.266884417968683
-16.2681756389282 -14.077057963845478 1.2051386965620647
-16.276523131945854 -14.099237849499557 1.1404326257901989
-16.28827469990956 -14.122598976086406 1.0764189022415094
-16.302726662767853 -14.146130398900427 1.0122514034559202
-16.31846559862308 -14.169218483902632 0.9466250000747509
-16.335959236102816 -14.192475511854381 0.8776195667667182
-16.353615212576827 -14.214572005140722 0.8090436690013343
-16.37072371236454 -14.233279870885033 0.748731847755673
-16.395433730176254 -14.257355854337602 0.670191198521719
-16.412683084654116 -14.272590499671741 0.6184415521516495
-16.430075266441303 -14.287143868192015 0.5676798597282406
-16.446986021652883 -14.301773760208137 0.5174840526190767
-16.46517147551739 -14.315471819335988 0.4657601932559121
-16.48328765826237 -14.328300389658796 0.4124876321019002
-16.5078717267411 -14.34404437029812 0.34293507928682576
-16.535073306896617 -14.359947041867672 0.26850838424000223
-16.554955131812875 -14.371012298610784 0.21513855196598364
-16.582441037828936 -14.382156280969042 0.13047714213894945
-16.602251541193027 -14.389486026650545 0.06632687452757935
-16.622671835594016 -14.395849287001825 0.006760519787690988
-16.644321320808313 -14.402873470588625 -0.051080422857179286
-16.66750027246178 -14.41066234989658 -0.11340499110102087
-16.6924674936812 -14.418578804670757 -0.1759440429542236
-16.718568382810666 -14.426545449562031 -0.23921039494790897
-16.750437757823033 -14.435741791780176 -0.31444096396833654
-16.786096208520576 -14.445412389843197 -0.3967929462037407
-16.823480777935423 -14.453264127781807 -0.4858157535720595
-16.86389285635927 -14.460826143345372 -0.5807963110800447
-16.893007742892493 -14.468478899379255 -0.6421898548931253
-16.926558281657098 -14.478270909461267 -0.7070213863511103
-16.961635277554514 -14.490129167086886 -0.7707177566345358
-16.997242903855906 -14.501852192826847 -0.8346555643601068
-17.03292965093532 -14.51349776967746 -0.8988903657998826
-17.064688840046223 -14.524146482519427 -0.9541491385892442
-17.12465471959804 -14.548712082047683 -1.0497769142872038
-17.172386968378188 -14.566613508027318 -1.1275145384792733
-17.210575816070566 -14.580689922151553 -1.1896292199905947
-17.248397430305403 -14.593801579520145 -1.2522228720791304
-17.286201718359123 -14.6068262141635 -1.3145788570691899
-17.323934491506392 -14.619900654640256 -1.3766576750214377
-17.38079695910238 -14.641655838556398 -1.465920381978556
-17.425802942064678 -14.659383258309507 -1.5353077086385838
-17.464446503507844 -14.673816388794863 -1.595495540612891
-17.513259355414664 -14.688675725201556 -1.6752883501107796
-17.574109972691197 -14.708158325060676 -1.7722194110618474
-17.611178420224178 -14.722369101611065 -1.8278425886198377
-17.647800507881794 -14.736225554750218 -1.8824074716040098
-17.690413377345713 -14.752180831385695 -1.9455455600390135
-17.718996696477184 -14.760823235226079 -1.989953453682375
-17.753360017469543 -14.770498914983865 -2.042586547061047
-17.78683614783992 -14.778064019232568 -2.094761459405417
-17.820021721043588 -14.784916127489604 -2.1457075523737394
-17.8521046261176 -14.791350818735168 -2.195444241994929
-17.883794501257064 -14.79718486648545 -2.2438159991046014
-17.91532663504595 -14.802874586434795 -2.289906045132163
-17.960136064545036 -14.813692234152173 -2.3524095984175943
-18.017486753502325 -14.830785379783693 -2.4264410495962494
-18.054043584946374 -14.841355594351437 -2.4718836917938454
-18.090501676827138 -14.851411044659416 -2.5156477326824547
-18.126708049244307 -14.861205030899923 -2.5582213496983357
-18.162812139231036 -14.870448550562712 -2.599228270666547
-18.199486036850594 -14.881882338072964 -2.637805545712446
-18.23559807380639 -14.89296088569518 -2.675308564848633
-18.271694150347987 -14.90359531528327 -2.71161101536779
-18.30748247742784 -14.913564702404893 -2.7467682380652896
-18.36141332649443 -14.92871929894336 -2.7966017560452308
-18.414217070552546 -14.93966516223282 -2.845855954732821
-18.466082863809227 -14.946971804109458 -2.8932513562443702
-18.534288067184782 -14.955021001912005 -2.9517060045696724
-18.593453543829522 -14.960916580454146 -2.9999471509338402
-18.64538426971426 -14.965250315194782 -3.040200462441657
-18.696724212992006 -14.968331985660095 -3.078791110301646
-18.780681168181708 -14.97065306437651 -3.1389202557635922
-18.85081573458371 -14.97846029772327 -3.1835535882196897
-18.933245587244834 -14.986619995994584 -3.2325221915171003
-19.025554298587423 -15.003712113093224 -3.281167181145344
-19.10874885017299 -15.011459181095395 -3.3250732558282667
-19.160078956255994 -15.015467586066794 -3.351393956413961
-19.211457988774036 -15.019284090157624 -3.377050712368284
-19.262935498044047 -15.024426649047157 -3.40197302525495
-19.337065453369288 -15.03007209846261 -3.437916801711957
-19.437965251091978 -15.022789374408477 -3.4897822265696608
-19.493244346667794 -15.030093117985286 -3.514853535072012
-19.5517470558313 -15.04233408094567 -3.5394945114696856
-19.627473563065394 -15.06839101757928 -3.567202213110999
-19.69640026526443 -15.092967511244263 -3.5910466736147697
-19.754932811648892 -15.094144643922538 -3.6118879558405528
-19.809881578931034 -15.094715139122536 -3.6285767043894026
-19.885520429661995 -15.097042998058033 -3.6471574636977238
-19.95996839225542 -15.099109070474045 -3.6598924160944843
-20.032149332186705 -15.102988207913585 -3.668065764477637
-20.095449226623632 -15.108041025492687 -3.671720674921737
-20.15182268789639 -15.114922672643075 -3.671313787460546
-20.244675278577326 -15.159063066924725 -3.6660265750077468
-20.296312856008676 -15.17740675378411 -3.6617384176979595
-20.356073280081112 -15.189619967904603 -3.655978951834445
-20.409034850620497 -15.200921342349691 -3.6498263488753455
-20.47552207999549 -15.216437404989756 -3.6412125160842326
-20.576906421764367 -15.237801049653754 -3.6262738130782814
-20.637586078672946 -15.248967463154136 -3.616565633461084
-20.72552068313517 -15.26247057212518 -3.6017875604973373
-20.789804350804143 -15.261462445561826 -3.590083537748777
-20.839079876085776 -15.263405204245394 -3.5799253213027526
-20.890061767089655 -15.266390469916006 -3.568808141000275
-20.955607611118715 -15.270489306105045 -3.5531637845522894
-21.03796147746067 -15.28415650062819 -3.530564511108736
-21.09375006882951 -15.293834019774058 -3.514340059654417
-21.150931068624764 -15.303255810766196 -3.4970357326286496
-21.209589271653428 -15.312948197946016 -3.478277116498605
-21.26944466328109 -15.322837857739945 -3.4584599561405973
-21.331152969158126 -15.331601505678899 -3.437993827152516
-21.394088069399906 -15.339290521801981 -3.416571372384272
-21.458057583986147 -15.347599373113834 -3.3941811797444785
-21.522570108990244 -15.356049259626856 -3.371602981757251
-21.58955459579355 -15.363960138190123 -3.346776633363504
-21.65633644965405 -15.370463871872083 -3.3210135273354116
-21.724842452115187 -15.37687307202526 -3.29461211538975
-21.79382564124596 -15.382425779767972 -3.268030301478726
-21.840564531836456 -15.385705896737019 -3.2502661278273504
-21.909351074881656 -15.389088734513114 -3.2229646134567993
-21.96625075898875 -15.38575835925171 -3.2020384868863463
-22.014390286245863 -15.382915458585387 -3.1841959030314513
-22.06259616880758 -15.3791331712118 -3.1663810030073165
-22.111004573878926 -15.37427203302282 -3.148651283840948
-22.159582252367276 -15.36910717601376 -3.1306476715178135
-22.20813190004194 -15.363052290377157 -3.113064387182334
-22.256816031679712 -15.357841567682836 -3.0951870027039945
-22.3055216014793 -15.349062060692058 -3.0776787791317943
-22.354387465430708 -15.338285007046595 -3.0608303063968094
-22.403705447134527 -15.321788929481377 -3.045551804583658
-22.45259252652753 -15.306055387972284 -3.029944625234373
-22.524157888354086 -15.282827833666916 -3.0079637843375817
-22.598859055212206 -15.250023917137645 -2.98672751638361
-22.6643029796834 -15.219571393643065 -2.9687288613383647
-22.742744792284583 -15.18082748146342 -2.948799472938319
-22.789824234591432 -15.158741288010402 -2.9362153306416836
-22.836394369033787 -15.137408173794597 -2.9237026664011214
-22.88256387811156 -15.11519202655254 -2.9117082461777315
-22.928702293734837 -15.088082485070501 -2.901559766569953
-22.984200224516147 -15.049719124506302 -2.8915771955283027
-23.062108275528736 -14.993215486861297 -2.878550945435329
-23.104140547567884 -14.963351887637524 -2.8705011763866572
-23.148387427667686 -14.934238460247713 -2.8648251331232135
-23.229938382475765 -14.859810636264871 -2.856951581962381
-23.295030215569856 -14.806834640971726 -2.8502085224236158
-23.340102880650015 -14.778161594305027 -2.842581395725322
-23.410885536422015 -14.732081545166366 -2.831582881862987
-23.476569371405503 -14.695697257462268 -2.8190452965549575
-23.547189809317583 -14.657671659086569 -2.804584409942592
-23.644659061639313 -14.600568367886252 -2.790862822862886
-23.699417993611263 -14.575704190538668 -2.779341758297587
-23.75338733317507 -14.548567519564658 -2.769131874793519
-23.80649591819831 -14.522104680832564 -2.758856010166866
-23.85904279675966 -14.497593783385817 -2.7483193818761382
-23.94135704779697 -14.46095549949582 -2.7308076439934776
-23.998294441886905 -14.437818569955246 -2.717102087178148
-24.061184101658775 -14.422259958380865 -2.6989587123486043
-24.10952802817003 -14.410919486767865 -2.6841367106315435
-24.180426282657535 -14.394649615148275 -2.6621330111964188
-24.24950380127077 -14.378898492051954 -2.6401578956548786
-24.31651974879593 -14.367030391802912 -2.6176781140217873
-24.381731697164668 -14.357613681849516 -2.5940851316292193
-24.44449620384869 -14.352228576344665 -2.56934517526064
-24.52738286947892 -14.344715755248428 -2.5359655909717276
-24.62291259446751 -14.33250199744226 -2.49839450618361
-24.678787909745342 -14.325829794072709 -2.4748368008300865
-24.733144612719585 -14.319250591848082 -2.451561871899134
-24.78107227649017 -14.313198835104393 -2.4301574543968485
-24.82706289794061 -14.3064450925881 -2.4097069017728234
-24.877277647175774 -14.298783381434239 -2.3868396155703664
-24.926639067770367 -14.290953496319505 -2.363160147623354
-24.974716514375533 -14.283106844640853 -2.339446318842848
-25.021716149957143 -14.274566919874266 -2.3156993341229963
-25.073216402276735 -14.273303774513641 -2.2830691342173832
-25.13952423026043 -14.268522314152452 -2.2418016373902994
-25.206270587500146 -14.262157297048962 -2.1974362157137417
-25.249727104107816 -14.257231918984804 -2.1662619242656085
-25.309109105000616 -14.249204787794918 -2.1212989319912214
-25.36279655260282 -14.24009114054717 -2.0773904365731877
-25.40964296250878 -14.230610156128325 -2.034628888040192
-25.453202798727013 -14.219378376650575 -1.9921493325475872
-25.492975500493568 -14.205902860229317 -1.9500185901386011
-25.529595581003353 -14.191764103355931 -1.9073954605762715
-25.565097366447343 -14.177191474687119 -1.8627867944886063
-25.599622954611288 -14.162089527376784 -1.8167893293298025
-25.634202411085763 -14.145034319368065 -1.7686742339263724
-25.680035141062685 -14.120600472905176 -1.7045015695824084
-25.72011432774155 -14.101242567672186 -1.6455426039453531
-25.760731194038808 -14.083222144879766 -1.5847836001914466
-25.803802927956276 -14.06516071562474 -1.5215565867634204
-25.84912833800563 -14.04963073032866 -1.4532987813887317
-25.88036851243866 -14.04327270543301 -1.4041786824360631
