288
10.74682029777935 1.3103389944745372 18.507907627855168
10.686483663146786 1.3146519205980152 18.5370692068803
10.613539631113575 1.3085768899841321 18.577400273008045
10.560205660985467 1.2959067459909503 18.61148676727583
10.487498537700697 1.272319408811244 18.66089864979448
10.421041798044103 1.2445877608253069 18.708816402335156
10.367903338297197 1.2220473185664344 18.74511895725479
10.312265625562919 1.2077854176098946 18.77486230072381
10.250404593508083 1.1979863145322103 18.80037867805155
10.18537253705818 1.18713194314378 18.826448823276795
10.122982701542654 1.168392251449311 18.856724383218694
10.063115717743834 1.1507654733695434 18.884464676519936
9.993793403562337 1.1298037971776163 18.915994525636396
9.927656196222795 1.1029053498902988 18.9504886980679
9.871602614522294 1.066611577345248 18.99171179509908
9.83280278344918 1.0399502907611629 19.020904995628147
9.792200055100809 1.0146831893715387 19.048068359201675
9.752280916496368 0.990331963315298 19.07471639587432
9.681387075364839 0.9524349159882588 19.114363711451933
9.610836330069686 0.9235763349229043 19.146197390684524
9.562066724409862 0.9009318799589945 19.169700943936128
9.50256682760267 0.8648235641820188 19.205589376371755
9.446730048932459 0.8358493655800308 19.23236768654987
9.39681739728745 0.7978991583850892 19.26744040137925
9.359836333671518 0.770031815775913 19.29303128831444
9.307369814608812 0.7234774837122382 19.33379706045437
9.2574362205925 0.6953038580443236 19.35905629911018
9.177637082797522 0.658175670119916 19.388866403279113
9.111980490209262 0.6236735648124716 19.414817749678008
9.047270789875194 0.604490278153448 19.423080138551377
8.961503248216838 0.5673630674235932 19.445471877594294
8.903130884287325 0.5620580007967266 19.439996379495152
8.838302923738873 0.5474595474048458 19.439101121730403
8.774704306452552 0.5287335463162126 19.439595795952435
8.71395801441488 0.5116429516129548 19.437258704750793
8.630719289893888 0.4829841078849295 19.43492920124873
8.570677981498362 0.46275836073180265 19.428749899732008
8.509838107654767 0.44250002610388517 19.42352995647569
8.427788663782364 0.399891563674605 19.42209577863736
8.34623497827393 0.37296528199728307 19.40546053734259
8.255507435505628 0.3395751646622669 19.385803205270197
8.16138712525614 0.2926972631012834 19.369472883443933
8.104101522013288 0.26938939249549687 19.353703867231193
8.03419944965543 0.24389069972725785 19.331718021672216
7.977119127846686 0.22178219915441222 19.312371424440613
7.915285377356042 0.19860689699282474 19.28968555743921
7.837439239911486 0.16807140299747303 19.26068976151856
7.754732349484087 0.1346772406798431 19.22796076997829
7.673495661048332 0.09880475298721514 19.19631076173779
7.591397259598114 0.07172070377358697 19.15653601810309
7.539752538960608 0.05727039880929663 19.129875080861872
7.476261016122843 0.03938878112718669 19.096552970918058
7.426729170187981 0.025704284416650403 19.07074176734972
7.373114137380563 0.00377195567642552 19.044744555288215
7.320380796186527 -0.017442569449920065 19.019457675494134
7.254370343852539 -0.04345201088735262 18.988024236842637
7.155236300385587 -0.07504227563744426 18.93532798873821
7.0960264802326005 -0.09293341370028863 18.900908102696587
7.034461620248548 -0.11008343266447884 18.86202024966111
6.972645072949048 -0.12498195090017195 18.819683464409458
6.924255856990062 -0.13501309173107767 18.78484306251117
6.874501195535714 -0.15160228783731622 18.75035980511931
6.801958977192667 -0.17879781473945755 18.700035445130567
6.752073436828196 -0.20362624389222672 18.663994065422298
6.699198698031157 -0.22936435643224762 18.62511916124856
6.6418913982070595 -0.25820352002886127 18.581856557172753
6.595893694473011 -0.2887252135557943 18.54861487939863
6.55530672965965 -0.31251159365295633 18.515390465136427
6.50149712397215 -0.3404890463901471 18.470471413163953
6.444363360657137 -0.3665002833786408 18.416843929290764
6.359460232037497 -0.3932629825934342 18.33008078609452
6.273487749376125 -0.4274901687348498 18.240104984466562
6.1979969785131 -0.45562208519338787 18.158727004992812
6.165440118371254 -0.4730609850750107 18.119871836496934
6.123786851702065 -0.494796542084444 18.07269704356787
6.090353849074371 -0.5238278810456816 18.035027855723897
6.0487218460467425 -0.5751168559539366 17.98992741304597
6.025468781533252 -0.613178750582005 17.960421479249224
5.990252130774147 -0.6588392174556659 17.90397322673289
5.949362000486259 -0.6991044420891677 17.816606074662367
5.927885771046439 -0.7249563911931105 17.761185857430274
5.90173223284926 -0.7748583101652198 17.681494862434683
5.883272680651874 -0.811426145513634 17.620897323185314
5.866992198173239 -0.8380357471785684 17.567572751529855
5.845475867583154 -0.8696549989372278 17.500456646510877
5.816916841092545 -0.9004187644638391 17.417781386093413
5.792088844280048 -0.9170699270555156 17.35425232321219
5.7751100604648835 -0.936842557115273 17.309598201365905
5.751103560554826 -0.9604277553907878 17.24579986457501
5.725045365158059 -0.9926212533278633 17.174756417120534
5.700086039558474 -1.020097273330122 17.108590431657035
5.690268115766221 -1.0310105387744501 17.08187642044097
5.67661445588646 -1.0408910167152379 17.047779945353888
5.654962698421293 -1.0597585408081827 16.990787791107252
5.6287835173532335 -1.0898123810693545 16.918680980440993
5.611903631167477 -1.109311203686778 16.868514627645045
5.578590011326123 -1.1404210574598355 16.770350226512356
5.563405742919595 -1.16020778329597 16.720095652407345
5.547855298213711 -1.1782924850081518 16.670557309531787
5.520463426150735 -1.1947266359576796 16.58344073288956
5.499715353428894 -1.2157376356963412 16.50528732989289
5.482197941179063 -1.227065664065048 16.440212238964335
5.469859834272582 -1.245658890288686 16.376095800088066
5.458974635303199 -1.2651864950957794 16.310242664009017
5.450390164256261 -1.2825931683370255 16.248625890929816
5.444204623213831 -1.3087242999547612 16.1662465780185
5.441940480794716 -1.3240245370918209 16.114908682340417
5.440840024112523 -1.3347084258071362 16.064064844411515
5.451486199416817 -1.3762097234353092 15.945075309605802
5.468565916398062 -1.426316289728085 15.86828828620105
5.4836361842824175 -1.4664234474031703 15.80861460387316
5.50327264117 -1.5108146790812373 15.734956315274065
5.523990200307288 -1.5598834298247635 15.669717148415444
5.539641356341371 -1.5747154479170749 15.607158164492851
5.553091182754273 -1.5890532390761747 15.553925922473862
5.573013412561024 -1.5989860923098291 15.480174132749589
5.592363440103079 -1.611276193417324 15.41677834116436
5.6186091807890035 -1.6326966662951055 15.340983677818794
5.638870949461922 -1.643339949576791 15.284059323630387
5.667918082605225 -1.6577368087954714 15.208071467687077
5.69015716396949 -1.6686595794860342 15.153937566322831
5.715629169119977 -1.6840696008824074 15.095833471677583
5.745857948240185 -1.6975247133354952 15.030049314243854
5.77425917228742 -1.7067882193637267 14.971311657478601
5.803965459190621 -1.7158803885689564 14.91262312082673
5.830217021688084 -1.724438368748137 14.863842414312895
5.864247847960591 -1.7381879701989096 14.803678752997804
5.894928469268897 -1.750930820866265 14.754405123300277
5.936209224300961 -1.7653474439313999 14.691405994417462
5.978647057667478 -1.7881241291970649 14.632912132442296
6.015349817727506 -1.8059496540389013 14.58551407533793
6.05302483174599 -1.818325568497472 14.543228783251873
6.099003831627902 -1.8310170661937972 14.495667306096873
6.143713750547692 -1.8401969998549919 14.456027248126958
6.195126223495231 -1.8454997298988487 14.411175384940442
6.2492047277284755 -1.8523608378699765 14.37424631116529
6.3151063643811955 -1.8882247964871173 14.337874475317708
6.3617179849129055 -1.9134727496170916 14.317405312371548
6.429065417112394 -1.9456820223318658 14.289320625204635
6.48486641201896 -1.9695410820148531 14.268003087637531
6.545135646495261 -1.9869032690755688 14.245390050737761
6.607957381561734 -2.0032279558219086 14.221350805794934
6.673674475452287 -2.022014869200939 14.197595610755624
6.742321172110758 -2.041533451495592 14.172333009170831
6.7994215127865125 -2.056261299610382 14.14955935832861
6.869053283076514 -2.0784349449941897 14.123759180598192
6.964977066940639 -2.1062275470224785 14.08651031782668
7.057960201100601 -2.134825805210478 14.051812423228778
7.11858159195163 -2.1534967622088383 14.029755447491947
7.168039916522197 -2.172311159613152 14.013761208754335
7.243228711734197 -2.203027125541639 13.990035777202248
7.308185570082271 -2.226820808899424 13.969747581960519
7.386294732587318 -2.259329465013602 13.94651091472431
7.4398106829755974 -2.2759965538304727 13.931262479711812
7.515612667141337 -2.2999749612501508 13.908669807937585
7.578246189956214 -2.321582258221062 13.892296908725182
7.656800161503671 -2.349536993812937 13.873319732563377
7.714875455034621 -2.373000301773324 13.86187228717797
7.782173454876709 -2.4009227452545705 13.849343956143873
7.845724617677233 -2.4257903556178757 13.839525259793692
7.9095018883388715 -2.4520606490767203 13.831728936983986
7.971122129704257 -2.482724696742853 13.82807172890696
8.031180443096613 -2.512158332009954 13.827001282190004
8.08206858093687 -2.536663109584071 13.827312816218825
8.145595213888829 -2.5702005955527842 13.832416399238856
8.199848862721465 -2.5974700794341423 13.83870180250435
8.26011791275023 -2.6234020825538966 13.848332632879448
8.325138688780221 -2.6489802282560335 13.861890710173206
8.39400429536997 -2.6676817190073887 13.878040499184152
8.453218213033379 -2.6807806337896225 13.894033210936385
8.519525906903167 -2.6888836688111812 13.913456449298224
8.604749830104602 -2.6892623427503115 13.939176315255487
8.683477695999946 -2.6949399922431585 13.97185126660515
8.762726849359023 -2.7016194739538735 14.009178792410367
8.824859522124418 -2.7070066394109578 14.04053730582342
8.905145647441897 -2.698799602378423 14.075735402497408
8.98409005041759 -2.6868979935951307 14.10896361692172
9.056655644167787 -2.678773450843841 14.141143960115954
9.1358163531745 -2.668559580183448 14.173379120196657
9.195179021515456 -2.6579439623869563 14.194897278206657
9.294658884738622 -2.6428819035534445 14.228805164394103
9.36790686393178 -2.6343117057153043 14.25117341512427
9.453323144940835 -2.6283558475531326 14.274602968450786
9.525773059715325 -2.6247661861674025 14.291975927842
9.629362308778205 -2.6418409161026988 14.32068089903748
9.741979124166628 -2.682213329004866 14.355235657907095
9.802332460809994 -2.6921428413936535 14.369416150047385
9.860723640344965 -2.6970035602962508 14.381474136754015
9.946249027473115 -2.7091342935100946 14.401038659363124
10.036396198772366 -2.703772647986823 14.416384708304808
10.115599358390815 -2.701736437780239 14.432154078715797
10.217036068758775 -2.7002367861036283 14.455113493837839
10.309917013943423 -2.676993937078862 14.47265050326212
10.372775952565373 -2.65928878236166 14.48631930832881
10.425528191061263 -2.6419840117451647 14.499215315818539
10.485898075525213 -2.630393548497608 14.518499195721166
10.576118639477025 -2.615991066981407 14.55530792251016
10.661360052032911 -2.608709847421469 14.60119878800576
10.715027015008458 -2.600700909854001 14.634364392269994
10.763369164046269 -2.590247307479721 14.66777336099285
10.822282660416654 -2.5760700117436857 14.711735190847712
10.890897976975813 -2.5451516026317904 14.764639054868365
10.937783429210231 -2.523200958080518 14.804574604465522
10.984303152364577 -2.5019480729269694 14.847580645721806
11.030839394944016 -2.4823498147975624 14.893709853854755
11.076776342777647 -2.461410246786026 14.942292094585667
11.122744822187911 -2.4430742037813045 14.99456824324329
11.161735173284125 -2.423128562829985 15.039605235480288
11.211273765521454 -2.384136823840712 15.093730500090675
11.251123860150324 -2.346885794650723 15.1369783696194
11.299579362687005 -2.2989714909039787 15.19245783067803
11.329570623157936 -2.2725188327082835 15.231381513738139
11.361089288459747 -2.2338341046909034 15.265568433992982
11.386193594667176 -2.201839243780763 15.294903734872257
11.423971210341119 -2.1499338523476923 15.338985479676207
11.446246472573858 -2.1116534046642004 15.364124776884232
11.478051060363011 -2.0570569492790742 15.400790004856482
11.501701771901242 -2.0122880077114957 15.42847102138375
11.532538386410764 -1.955387283190765 15.466885099985078
11.56657055382139 -1.9014634324933226 15.515643411847005
11.59740284685422 -1.8307973077495188 15.555742748303349
11.62093263980269 -1.7550186338531644 15.584920255876177
11.64099687276308 -1.6925337388630681 15.614036296158588
11.659492596575038 -1.6355368615780739 15.642439262657739
11.683022583059621 -1.5590857136374123 15.68264060400653
11.69684367082657 -1.507211784545703 15.706451791367847
11.711510758189009 -1.4324331980290204 15.73195141454179
11.723955097220843 -1.3662920038581752 15.755168523218515
11.73224039534706 -1.3170527141310289 15.77209562116504
11.74741229590063 -1.235981493218083 15.806258502673742
11.765026775423213 -1.157708052572302 15.855138148876659
11.785426175083375 -1.0893717560890304 15.92264944281727
11.79767459079031 -1.0048644025363629 15.973630972555537
11.804767860440455 -0.9606023447766932 16.005397603489957
11.811062520043002 -0.9148597909950755 16.040897378823956
11.818466564818666 -0.8579908439415185 16.090405773551335
11.822831720293717 -0.8089595337411448 16.13045163222767
11.825666090368065 -0.7498805254279262 16.170096949963604
11.826630055863381 -0.7053330857298974 16.200121478019167
11.827346839863079 -0.6517600027296182 16.239746083788855
11.826726046783797 -0.6013679954334012 16.285010408111336
11.8267340703038 -0.5527994441428499 16.329132531651037
11.82300962552046 -0.5045836826059276 16.37277165657782
11.820338347492509 -0.4582242707348021 16.415596072654367
11.815207485593527 -0.4091603908488719 16.460134896211986
11.808525620358788 -0.3585641090131686 16.50442006325926
11.79890726041588 -0.30161401663552034 16.554072144754183
11.790469717462612 -0.2554083004185692 16.590200322548746
11.77692113524472 -0.18522850009788527 16.63556432285262
11.76726390383194 -0.14525436979438577 16.672598331694065
11.751081832692844 -0.08699168265034807 16.732740106936852
11.740092397762023 -0.04914348522285916 16.76937419549083
11.725026805219683 -0.00018218714544637749 16.816407302873472
11.709028269313967 0.05049657582019318 16.86455491756284
11.695679119626122 0.08787979127235435 16.904583244460763
11.674774539987597 0.1357755342001079 16.97168152289199
11.653377776748911 0.18239962776895258 17.03439272603267
11.637948070250511 0.21760782309034532 17.078907499272628
11.615414003745926 0.26528909934690503 17.14018704048343
11.599388150974677 0.29332885768475236 17.189577179973448
11.578079154561756 0.32594652348554387 17.248292923407995
11.558308081621927 0.36279289316590546 17.29872786498877
11.543375167439267 0.3894359338395681 17.33545924446898
11.52600714042815 0.42042856368398684 17.37818794378151
11.506850142206131 0.45925054761617634 17.42161202923432
11.489952465423244 0.49708680572162134 17.456045742786564
11.472822110866733 0.5312989017116392 17.490667898754566
11.452827799957397 0.5736678166750053 17.530912512696016
11.429418386711584 0.6281354869933633 17.575464363104427
11.408564329851878 0.6847519482415194 17.61512417953464
11.3879786588872 0.7439794302600449 17.656079816931435
11.368247305133579 0.8035337973349819 17.697478082478728
11.353785347062793 0.8420948293886683 17.729000571394433
11.333503692584667 0.8982052980538064 17.775201995964196
11.3145645316002 0.9505228071906133 17.818293561277454
11.294647280713495 0.991883743728752 17.870198018609628
11.269404711738135 1.0304868282505266 17.9494980249519
11.240248412011418 1.0535306112658072 18.04613641099486
11.218547515016086 1.063593172604537 18.11909679030172
11.185213782580362 1.0964374637031549 18.18709216316894
11.15910991793898 1.132495265262504 18.215331030980717
11.12067123509178 1.1765789158942974 18.250185285702912
11.077305386259688 1.2175344358950735 18.285349803677672
11.026957697385164 1.2472131618778093 18.32843015115433
10.983855167277216 1.2620892100301537 18.36676719619347
10.924560871019656 1.2777001266704184 18.41129761746452
10.843277996815365 1.2888153532226942 18.465646043657788
10.79404854629147 1.2994925597288765 18.489625683562455
