267
-1.123166471208357 -5.0116567538154335 -8.715903387809199
-1.2371074561017883 -5.010586260487401 -8.78714488424033
-1.311815760098705 -5.0096495566725805 -8.827798421159521
-1.3626769720766783 -5.01743479335016 -8.848886604174266
-1.412813209562695 -5.024465578952749 -8.869364817332999
-1.5106569296027876 -5.012202463735675 -8.911052769484876
-1.618517928462488 -5.023125827198363 -8.947878141866742
-1.6995281857628841 -5.020179670572161 -8.97452213919651
-1.768147848449396 -5.0095650011161865 -8.997297498304365
-1.8504704299988264 -4.997595922807022 -9.022071100292974
-1.9411454102903916 -4.9739782258035055 -9.05028714545462
-2.066917856005552 -4.976849403669429 -9.08027869453211
-2.1676036381783303 -4.981995212561176 -9.101725548438484
-2.2839556323449584 -4.971517545413393 -9.12724145238063
-2.3536652462696095 -4.972112807730057 -9.140612884807757
-2.4034646010207608 -4.9701445190173095 -9.150328764177793
-2.4812356614142645 -4.966762994165757 -9.1652764375562
-2.5368861826772475 -4.964835509065433 -9.175049042717095
-2.616900636538639 -4.96225632275625 -9.189177076989642
-2.687100252707551 -4.956952270273859 -9.201344734745435
-2.7375016174094577 -4.95181026228545 -9.210066336842978
-2.7967970581814354 -4.9467032178249415 -9.220205463683389
-2.9247824005185654 -4.961029513399041 -9.23712878398174
-3.0099688572053855 -4.979027512669294 -9.247195027248546
-3.0653041486616823 -4.9877531454841195 -9.251677410996795
-3.151289426447904 -5.051426433630026 -9.255443911297444
-3.2246243905450536 -5.102754919779718 -9.258752846204276
-3.2701311891668263 -5.146636318860307 -9.257786190334224
-3.3187393351319576 -5.180770436044045 -9.259489926798864
-3.3824960582904167 -5.212080329415918 -9.263980674737756
-3.4496238549485314 -5.2251475973721435 -9.271400291716382
-3.5026624945883365 -5.234376038406494 -9.277657181405866
-3.5853707452254886 -5.246056256732476 -9.287809447291972
-3.640678728258867 -5.260116469234586 -9.294779751423905
-3.695580907181273 -5.281283247825149 -9.299637738003979
-3.7649253518959886 -5.303195915181651 -9.307554126130459
-3.8138922145711733 -5.315701978287772 -9.313717630586584
-3.8736548894201404 -5.32968942104494 -9.323076027997939
-3.927994957863546 -5.337745530889362 -9.332222841003428
-3.999979299649577 -5.347557958591957 -9.344689567839103
-4.067072736193507 -5.357667390655725 -9.35569985283672
-4.145418755205106 -5.368080216202649 -9.369874531319592
-4.239418777543164 -5.365108120932627 -9.387546451421917
-4.296986630269591 -5.364193142794698 -9.398021587378214
-4.389783305943237 -5.360153226993106 -9.414066307439125
-4.467518904702755 -5.354828459665861 -9.426245014605783
-4.520227108374617 -5.346936208373112 -9.432650105773284
-4.583529395707646 -5.33279611001302 -9.43799749743168
-4.6654657427070605 -5.321821804246272 -9.440507574316792
-4.719822255304744 -5.317892729281132 -9.439103483926894
-4.8135208089135295 -5.31649285569187 -9.43152933397019
-4.893560484088467 -5.305381851075638 -9.421610049155063
-4.946503552223928 -5.298874765073341 -9.412621613097699
-5.021121292742831 -5.3047270779063345 -9.399870801745882
-5.0730231383274775 -5.309761522912121 -9.389904126410302
-5.151485509189572 -5.325956549795349 -9.372930361491893
-5.234325698724132 -5.344783478111324 -9.35274761340588
-5.320983336570962 -5.3641869596958305 -9.327706153175336
-5.436083605430341 -5.362575465718817 -9.286632891066441
-5.503214933722815 -5.3722422829110865 -9.259478421268184
-5.584345291943024 -5.381490885907608 -9.222386280746985
-5.670246043124938 -5.383492165608192 -9.175786111472927
-5.7308867749496395 -5.404570865084581 -9.141430841864207
-5.796636056625418 -5.42523747801873 -9.098445035039525
-5.8539260858693405 -5.449754947999076 -9.057084413750347
-5.922473388546428 -5.468537321342863 -8.997905289359343
-5.966620732777636 -5.470488899221428 -8.959676569165513
-6.007361755270151 -5.472605454835633 -8.920803255838225
-6.047973045105956 -5.461707947719481 -8.878313451844356
-6.092531915495223 -5.450058178898821 -8.83046548168024
-6.161169251254608 -5.472423614303431 -8.748301102573967
-6.205696433995334 -5.477064962241515 -8.69217369038968
-6.280836699146378 -5.486372797903428 -8.593500406336318
-6.298590484655956 -5.485290903992714 -8.567675713295445
-6.316016298005887 -5.484303842855264 -8.542102975964495
-6.342114159737187 -5.483106979757431 -8.502959215523683
-6.371820590215161 -5.482302432648706 -8.4556279900819
-6.4204960393599135 -5.492028272205517 -8.380693155917315
-6.4760306457573416 -5.4969051457725655 -8.28171370211154
-6.513875461911716 -5.496259138216688 -8.215110017546197
-6.547426867745432 -5.497040657496319 -8.148296940073937
-6.581371867196773 -5.499114677494884 -8.076924714770009
-6.615320767475462 -5.510478643439291 -8.005891979519987
-6.642355148948954 -5.5155954116990555 -7.943614960767385
-6.661738086685383 -5.509424517648401 -7.8891272060520405
-6.679647371323973 -5.49617794750723 -7.830237016753078
-6.702201932530433 -5.490663579228254 -7.760145653960927
-6.7231438610767205 -5.484610090989538 -7.678326083225731
-6.739012755066105 -5.482434569043852 -7.606095862147087
-6.7467766597708545 -5.459227958807406 -7.529521115927248
-6.7544249625825765 -5.449456553930199 -7.445970983876115
-6.7572307024577105 -5.443707113666408 -7.395162144857365
-6.755736739941605 -5.426783272531918 -7.329067223812568
-6.751744139141901 -5.410069859912869 -7.253643510452178
-6.747816606087507 -5.400333380058663 -7.204006749204658
-6.744420526085983 -5.395637627460509 -7.149461011967815
-6.737977461841116 -5.387635238668157 -7.084405358439629
-6.718535038262602 -5.35250629807805 -6.971963380784147
-6.7079266385022835 -5.332843449408367 -6.922981967572766
-6.695369987673614 -5.309646758297986 -6.866979287568557
-6.681998340632185 -5.285995224092474 -6.808602823732034
-6.666012524851005 -5.2599663904800265 -6.74125204652753
-6.650908228406304 -5.2360698656053986 -6.679047425186968
-6.635673396987511 -5.214807758874905 -6.614457274605489
-6.618991659790086 -5.193944871248912 -6.548960944685064
-6.601505835640123 -5.17290008422892 -6.482262509658066
-6.583280606845837 -5.153036264775508 -6.411433337988411
-6.564631317669746 -5.1330626527566 -6.34616402911806
-6.543159745542728 -5.1128703177762125 -6.271437247738983
-6.524039383378876 -5.0934769373695215 -6.20955496106291
-6.502060453823998 -5.072822066506913 -6.1411949201584575
-6.479474578253602 -5.0529608935195105 -6.073403585323512
-6.4608829227977 -5.039792744800671 -6.01740979363327
-6.441575532127062 -5.0287369522770815 -5.960040473711197
-6.420050186773371 -5.015480713447064 -5.900670450529026
-6.380761285335612 -4.979888061734775 -5.81071014797071
-6.34574350556428 -4.951065510475251 -5.736707276966826
-6.32009610520412 -4.929903098363683 -5.686603831008469
-6.293250105463053 -4.9080309509115745 -5.637707773991348
-6.252482416999661 -4.882687364817198 -5.566200189187241
-6.221189872377868 -4.867105018763543 -5.515301019301268
-6.189564791729375 -4.852875189790518 -5.467298540089464
-6.1487277687119635 -4.835719765346495 -5.411752347350176
-6.110384393293418 -4.82044552243454 -5.364945555271066
-6.067127086479114 -4.808475654318904 -5.315880363680649
-6.0211225496184015 -4.797323771097059 -5.269156849456851
-5.975640821224027 -4.79057425271969 -5.223513000444098
-5.910091909095892 -4.792074518596847 -5.1618284796021845
-5.8628933506727625 -4.783179619927838 -5.126308106551703
-5.812685793061241 -4.77369056394939 -5.092672457746323
-5.726496570610995 -4.773118379554346 -5.034166393585613
-5.649169721966314 -4.76801514980822 -4.989188603873171
-5.583620835503765 -4.761764803327606 -4.955265763638957
-5.5319486682582975 -4.7504021055601315 -4.9327419129632455
-5.4704970539079385 -4.7369518408462135 -4.907420364329038
-5.408410427826854 -4.72640912100882 -4.881578739592621
-5.349333457586305 -4.716501659937641 -4.857966161869935
-5.296829445337081 -4.720802819742073 -4.831728030391165
-5.234502305983935 -4.728580047996567 -4.800072776747707
-5.168522914873754 -4.727598121310027 -4.770016187547512
-5.084038257547548 -4.725349770142759 -4.731997642955777
-5.017378873695283 -4.715852233487452 -4.7042317395779385
-4.959016846024844 -4.7078417488932285 -4.680105854993826
-4.881601358255522 -4.698416360618149 -4.648769137478949
-4.7766980989299865 -4.670652931164143 -4.612921868710534
-4.714979776066323 -4.657661708283776 -4.591611139067085
-4.652385433815275 -4.649773180073501 -4.569052071283124
-4.557375912507488 -4.639143614594169 -4.534253696713615
-4.450308280152687 -4.633808278562145 -4.494927462420427
-4.386832014372959 -4.6282754092285066 -4.472873501377525
-4.328621776135681 -4.618316627680706 -4.45440473407274
-4.246752972914577 -4.684971915565234 -4.403756246392211
-4.1662514386434415 -4.690816329606096 -4.376497343705264
-4.098895313013975 -4.691540526304171 -4.353568988083091
-4.031326953083124 -4.690789899797246 -4.331440462619271
-3.9633648855504466 -4.689047250634402 -4.310370718164431
-3.895897051891617 -4.68669527661125 -4.289162462967029
-3.8306405598585735 -4.684388155828285 -4.269682051719731
-3.762349582054081 -4.678609083967588 -4.250048702511568
-3.66501021200195 -4.667390573236385 -4.222149810482094
-3.5833844386959255 -4.672270353482126 -4.2074682077154275
-3.517911794361745 -4.677940578129139 -4.199814264476163
-3.4440469865527215 -4.6666150955983285 -4.17341045239347
-3.402082869563988 -4.67792614337779 -4.142608049634471
-3.3463903486815143 -4.692251188343417 -4.124510712784729
-3.2416325309081353 -4.696660865047572 -4.094782356224809
-3.1722774094736854 -4.6919953610687966 -4.076254050600123
-3.0686739566991976 -4.702702386944814 -4.042859446149468
-2.9978636699714256 -4.715708430925702 -4.01916775920065
-2.9211999525547645 -4.73567836496204 -3.9909666240711994
-2.841368848080436 -4.747969593715372 -3.9630601959322194
-2.7621824134579134 -4.757139203867828 -3.93769493426493
-2.6755259846105934 -4.759387309744474 -3.911134683663999
-2.5887793371673924 -4.761499268276041 -3.8858851986691425
-2.502854399681314 -4.755353095434693 -3.8643524516694843
-2.4305484878335966 -4.747595041324818 -3.8483909224144366
-2.3646283618901256 -4.74767446010957 -3.8336601990908887
-2.3098045931409823 -4.751936142281309 -3.8215986356578737
-2.2593617875077525 -4.764008432353142 -3.8099871832519163
-2.1941523602230033 -4.781506304042698 -3.7960262493855854
-2.1348095064515364 -4.792686274962791 -3.7862344084190394
-2.0440540240053755 -4.80281377214926 -3.777424325836286
-1.9365384117394404 -4.80257332915641 -3.776878216255736
-1.8667258980360941 -4.7944473570374235 -3.783721190649885
-1.8158830975249867 -4.789024222738537 -3.7910103180156973
-1.720857994497691 -4.796153856602037 -3.809026092209721
-1.635341518094009 -4.789963000611003 -3.8343631876259314
-1.5507982017630288 -4.806724193108866 -3.8616499660338848
-1.4694811988675163 -4.83678658100184 -3.892381492002433
-1.3741004601909461 -4.847508142033049 -3.939139465393896
-1.266635617572427 -4.874167368366372 -4.000186405089905
-1.1968536693220404 -4.86504451754095 -4.0469236447673556
-1.1437634057845374 -4.862402535911063 -4.084216977425822
-1.069930151226326 -4.870392656289029 -4.13922181848427
-0.9956482000495726 -4.8743313760580245 -4.199336380965414
-0.9278427616045652 -4.898208026603458 -4.2579032986787695
-0.8859613474376635 -4.910467078977989 -4.298026970118076
-0.8478238949535273 -4.927823338974798 -4.336545821745814
-0.7985387042657903 -4.9361284591382555 -4.3860069042615795
-0.7634535266261846 -4.9419634360289155 -4.4221485802910365
-0.7024671983940047 -4.974618347825003 -4.498148883262852
-0.6500516789836093 -5.004464041027023 -4.568330890178923
-0.6059554709194321 -5.0179192347611465 -4.630172861158227
-0.5748651650031711 -5.016715908017579 -4.672067321497317
-0.527548207080522 -5.010025417815971 -4.738079582505976
-0.48084258803174507 -4.981497791730376 -4.792748193265336
-0.4349780278006845 -4.9564854865456445 -4.850778999173561
-0.40037624854250886 -4.9525664598253005 -4.905341348864699
-0.3650810754854925 -4.948074860745808 -4.96307698665244
-0.303994972305909 -4.909723172060231 -5.043290469849303
-0.24883531252090219 -4.885231212822133 -5.128463327645078
-0.21885003856359297 -4.883502726311219 -5.189589936127056
-0.17646795985503783 -4.868074427769386 -5.264029125753067
-0.13177102933955354 -4.852425100139874 -5.347401921197383
-0.09191028081490149 -4.833431173188023 -5.421218649596012
-0.05343971797614788 -4.811641122384732 -5.48695012812443
-0.02912394682488717 -4.797553099689847 -5.5284725728583455
0.006400123262765511 -4.7769742909430954 -5.591450650927086
0.03296400388506626 -4.7627049809549655 -5.642028009499718
0.05850994049908831 -4.7568684000469 -5.711351855355714
0.10250836466062818 -4.726883369409526 -5.785911156871761
0.13583554781734009 -4.714211032026866 -5.872591620305095
0.15735151363675648 -4.705601123580576 -5.931205769265423
0.17227768131620458 -4.7050777683461815 -5.995592523011252
0.1899989963101696 -4.697780292072247 -6.050199607369607
0.2181835409770141 -4.683717913249617 -6.129053274558128
0.23533536438004266 -4.67910279978669 -6.19895490153797
0.2347883921763465 -4.688367329374421 -6.263551476573006
0.24772784152501526 -4.686918857115516 -6.323205930264211
0.24919270395713422 -4.699281751342074 -6.439204594523912
0.2352247622724022 -4.717372810201626 -6.5237924920520545
0.22335344541703694 -4.727378404661908 -6.567188601369037
0.20813205482664632 -4.740208225590101 -6.622834371029961
0.20864936371819898 -4.739160571451679 -6.696091668146849
0.1934617845285942 -4.75019279975576 -6.765015991888031
0.17526052714151774 -4.760474124071233 -6.832250709516515
0.15016323465455006 -4.769858810286643 -6.900088663958402
0.12036436653014082 -4.7818779308089505 -6.961630630651881
0.08789414710132082 -4.793789851355084 -7.017757806561302
0.05199142236522292 -4.805849664426449 -7.073163230136463
0.01139536729495294 -4.818536665934803 -7.132874466973614
-0.033112258257324 -4.831275749223837 -7.198290736544323
-0.0849733442600824 -4.843787296021079 -7.269599834184267
-0.11445008983686744 -4.850551546409195 -7.32463357153662
-0.14033540898280172 -4.85604079269733 -7.380182295817739
-0.16554038492698897 -4.861686530831104 -7.428975253426084
-0.2052717603790386 -4.8738359111047265 -7.491801096581832
-0.24093921788199069 -4.88584906778466 -7.545461098692992
-0.290957839380547 -4.903415502451973 -7.624351384541046
-0.34708438281352016 -4.922168540733898 -7.709709339305284
-0.37195839288323285 -4.928991669964942 -7.753733666047434
-0.4015625140519301 -4.936854465473728 -7.80604929490119
-0.4446347480438524 -4.951188869827653 -7.87285240420572
-0.4756150042424716 -4.953568962442087 -7.93754813238965
-0.5104195525650121 -4.955130110320938 -8.006589856333704
-0.5450253120124637 -4.961603921285241 -8.062279270844659
-0.5823422691177162 -4.966060941403917 -8.12403304903481
-0.621046350152417 -4.969672010326743 -8.185001376643259
-0.6745275842638998 -4.973281787823381 -8.26840530062801
-0.7291064857412941 -5.001142665401832 -8.31659703536403
-0.7746640364543662 -5.021235212561769 -8.361419038314686
-0.8363994263173282 -5.028171698468711 -8.435648052845822
-0.8951428824663727 -5.033859719455329 -8.501270856197596
-0.9352582866744168 -5.043165119040625 -8.53870185203969
-0.9808048981866602 -5.037774016893672 -8.58781403733099
-1.032213294611453 -5.033085899035811 -8.636468302144499
-1.0802939895504515 -5.0177974209932845 -8.68202511704273
