296
-6.857882450189111 -18.445529312097136 -12.199255213326355
-6.935917537789498 -18.38922511528072 -12.232842330854224
-7.007326428276661 -18.314266451298923 -12.265794968785032
-7.051473237849191 -18.257079524962872 -12.283642985294904
-7.088569537182165 -18.211827670509827 -12.29486790145229
-7.1180219946826195 -18.167048526638332 -12.307884914090975
-7.151781792456962 -18.12289708123616 -12.317583787722713
-7.209555099253084 -18.0671831664932 -12.326636721107949
-7.269949215469159 -18.03366008636125 -12.32863281625385
-7.335017339856551 -17.981780439850738 -12.330148281282318
-7.410211060393047 -17.96893125252512 -12.322622227138918
-7.52510963578635 -17.950507943289388 -12.306771218348858
-7.583789054555359 -17.94101142507985 -12.296692358853997
-7.6645735707922 -17.920663705852974 -12.28181632362066
-7.786843972032045 -17.879031584215284 -12.256845823298642
-7.851402246547172 -17.857416404323075 -12.239696231119892
-7.925010708403665 -17.83226102499645 -12.221087061946378
-8.01815428173115 -17.79834120517843 -12.194304553167816
-8.080572083067246 -17.77825241622667 -12.17626572825112
-8.151340865349857 -17.759615722299507 -12.152215342765711
-8.201980843170844 -17.75490834284514 -12.135274736709505
-8.247303231107391 -17.744948481639597 -12.119271962394896
-8.3437938403682 -17.698493611995346 -12.08263297761308
-8.416861488047065 -17.687201914956116 -12.055262762576765
-8.50991422881539 -17.657403606031497 -12.016756919635538
-8.625701525889923 -17.66519762367998 -11.965357867363744
-8.706468919664244 -17.701955426885966 -11.929456812631425
-8.770136799813523 -17.715256827887902 -11.895341989113893
-8.851976954265927 -17.731901254170964 -11.8495415931453
-8.924670274471936 -17.73530536407549 -11.803827819144852
-8.987701244937613 -17.738460167848675 -11.762312812761097
-9.029701746890915 -17.741617476563658 -11.7334539370348
-9.07040777437028 -17.742594520155457 -11.704206374186624
-9.112933977770709 -17.748160520510837 -11.674114682218077
-9.15581147102306 -17.755949932836316 -11.643224040131761
-9.21031684739422 -17.759479979176746 -11.601488475750026
-9.32136828635782 -17.788536127560626 -11.517714023428212
-9.371829527013595 -17.768068712718794 -11.469359297271234
-9.416472602637986 -17.753205824662807 -11.424154020114171
-9.475374347803784 -17.76884456867727 -11.375413102596484
-9.550825820360885 -17.770220355447453 -11.307470030944655
-9.58016903977478 -17.741780079354026 -11.266170781606254
-9.616812213967604 -17.732211010849383 -11.22607309876632
-9.656764914113056 -17.719221330929773 -11.180264442852598
-9.695157031685921 -17.707482081631955 -11.135310298722027
-9.732913088628218 -17.69792160199328 -11.091054526532774
-9.771534051340419 -17.69310423501154 -11.048053450428453
-9.818843354125232 -17.69218988584036 -10.996673241981716
-9.874334522667137 -17.69329169945915 -10.936699822915335
-9.908075920699655 -17.68336652893722 -10.894417367692503
-9.949909197517105 -17.65697097509819 -10.836486632848397
-9.98469197822129 -17.62315940187084 -10.782206025871835
-10.008474442554165 -17.59749813315825 -10.742459704218083
-10.038268927686373 -17.57129874200149 -10.691301263194172
-10.08456949003598 -17.55583721877989 -10.608827309603333
-10.117928949387235 -17.56852312772952 -10.545326904657367
-10.147147352458878 -17.59417339671255 -10.482941698073327
-10.167453036535019 -17.61747708317644 -10.4280983432534
-10.188879795038515 -17.649253196400146 -10.344135478729312
-10.193131217206345 -17.640793502102127 -10.278752665114927
-10.189310979503675 -17.611867988780684 -10.195827718495565
-10.177855746996617 -17.558250490539265 -10.075671460674643
-10.164966290533625 -17.51817505575318 -9.992285445885704
-10.152252033746853 -17.486621468018065 -9.927116128996044
-10.134954956988686 -17.44693696518751 -9.86493740475022
-10.120531101075292 -17.417860147051734 -9.81499753788682
-10.103279412743227 -17.386226318580725 -9.758992585734932
-10.088419490401973 -17.360642592056312 -9.712550715482116
-10.066565372647577 -17.325569257248155 -9.650951065978267
-10.043180885930314 -17.29260617482476 -9.588871529808744
-10.016526756528402 -17.255988952939955 -9.52501037820524
-9.988637295713314 -17.218587006343974 -9.46304610106723
-9.962297598216322 -17.182132448929643 -9.41093395041789
-9.931689648651503 -17.143109506899574 -9.356335364154447
-9.899623619552706 -17.10375279572812 -9.304091473772571
-9.860620346449414 -17.056776352613248 -9.245917804902215
-9.81913771776061 -17.000660396423733 -9.201313276768564
-9.764967979710569 -16.93104988738472 -9.147328887130797
-9.71468648046717 -16.865260996471843 -9.112970515514936
-9.66923934990466 -16.806838836764364 -9.084301540677007
-9.633619511324943 -16.764519537418337 -9.062124825002106
-9.581572190052464 -16.707727580165788 -9.031858019746108
-9.541277815712688 -16.670024959771105 -9.00295065884991
-9.495241626282636 -16.62810798312367 -8.967412776420261
-9.437312135165408 -16.58467304479278 -8.919648780665892
-9.396921977698616 -16.559736618627475 -8.881859621951792
-9.354492125370014 -16.53387251247322 -8.843982454701973
-9.311086691576438 -16.507937048693545 -8.805586449984613
-9.26657164298015 -16.481679515013866 -8.76635891206451
-9.220930842435939 -16.44827349897432 -8.734613969858083
-9.178325074410417 -16.415466655958028 -8.708870072764158
-9.123834292362556 -16.35944588323256 -8.690793112420518
-9.073407430632138 -16.30287799900562 -8.68066099614066
-9.041258761618538 -16.264565919209648 -8.67764149342662
-9.00455895135092 -16.2203800991949 -8.674965013834282
-8.969851565015794 -16.176963874100863 -8.674617764533334
-8.934791213856805 -16.134261775839917 -8.674268089183316
-8.902207332221458 -16.090038966750797 -8.677556885645
-8.86454385665804 -16.038473356532663 -8.683425501111559
-8.829250999012428 -15.990712122800687 -8.688444129402688
-8.794004801928189 -15.943919178558769 -8.692506986628727
-8.759066325663541 -15.900299481879319 -8.693345293646011
-8.723762818099871 -15.854752307530621 -8.695993914336535
-8.689067183539075 -15.808119058705003 -8.70066039437017
-8.653589246609805 -15.761466955979845 -8.704990967965633
-8.624592421492784 -15.717784081093832 -8.709213768289132
-8.594815526713647 -15.673107154330253 -8.713321873012841
-8.564126343368235 -15.628747989574048 -8.714746866216704
-8.529276157181297 -15.577013505512767 -8.717929175437785
-8.495774185813715 -15.528816750634 -8.717194667047545
-8.443587969035281 -15.451528325231997 -8.720230391904114
-8.407779605111335 -15.403124559206766 -8.718901003570263
-8.35242627022228 -15.346982156853151 -8.695425573228682
-8.302427874300102 -15.294285947774913 -8.677856333848872
-8.267141182197854 -15.255780784860988 -8.665126854643034
-8.223927715195382 -15.216758683560052 -8.64394304360768
-8.153767191531399 -15.168755413454381 -8.597106303848316
-8.110054771512495 -15.14019514896071 -8.56745667814784
-8.03764182515915 -15.11093320245059 -8.50699667406388
-7.988212175195468 -15.095607152407787 -8.460235885075107
-7.924762196184625 -15.08578756498466 -8.397114277787155
-7.879202003133248 -15.067375809953752 -8.360227859844022
-7.801671275042315 -15.004548113603972 -8.324299315633045
-7.761177518506075 -14.97483893475911 -8.301594254001671
-7.713430512655483 -14.944960844031852 -8.27311806752664
-7.649660926235642 -14.902743190262347 -8.23732831010729
-7.578198043626021 -14.854615953129773 -8.198726088589503
-7.514551108591192 -14.813262979547387 -8.165750326549018
-7.449911882872321 -14.796960532653259 -8.114409229017555
-7.381138477046623 -14.789414219531997 -8.056956281576861
-7.307801945517653 -14.781987347826675 -7.999959518771472
-7.24676099707086 -14.782653436291735 -7.950573663880084
-7.157196677922167 -14.765370002024138 -7.888114751721104
-7.099084749182607 -14.73781588376934 -7.854139539111334
-7.056102935589816 -14.707805164101504 -7.833322907562342
-7.00129028165818 -14.660769705812621 -7.809509706951899
-6.93114157138209 -14.624727441330524 -7.76685798704814
-6.883546412829114 -14.622177807806011 -7.727331901682913
-6.832509571485614 -14.622080892058243 -7.682959391749214
-6.769045613807753 -14.597909925453683 -7.637430372757511
-6.707630630131193 -14.592468109197968 -7.588667056203107
-6.662848268339037 -14.60335264206368 -7.545226021686737
-6.601978959815037 -14.60342857546236 -7.493332600115658
-6.536707922902838 -14.65188216507419 -7.446841880550978
-6.462047315614052 -14.686933113030314 -7.386921187091543
-6.395993986068044 -14.715774767673686 -7.311256016462983
-6.337888638192052 -14.742473148295897 -7.241597049526974
-6.272584115897127 -14.773596586278934 -7.168248450651528
-6.228656663296141 -14.79850025251081 -7.129319987314005
-6.186900933672868 -14.814434752076817 -7.097356776478637
-6.146501736098484 -14.824124227391978 -7.068744912418898
-6.0961702883700095 -14.84808685764585 -7.032942578020271
-6.040944783087259 -14.862377572430946 -6.998114921932903
-5.95081752278327 -14.900958088391082 -6.945845661214156
-5.897831391419983 -14.935625212895442 -6.9184052854259335
-5.809136398063055 -14.997755498214403 -6.883058911550529
-5.756766613812141 -15.003836793106846 -6.870728111008648
-5.695959177344056 -15.00722872782716 -6.861142480168513
-5.600978813200843 -15.047172622264279 -6.8541127469928895
-5.520413325262794 -15.083033956533795 -6.854897026730486
-5.4363850257905035 -15.13597661004787 -6.861909606910616
-5.364303827812705 -15.162202968716446 -6.875996466409815
-5.297979511012038 -15.180103612063125 -6.894407440179019
-5.207495443010156 -15.214938661194381 -6.921561097050377
-5.174260190735572 -15.259320645553078 -6.930647729067804
-5.145662548485731 -15.310147282415453 -6.933076167100111
-5.099670656505236 -15.387802874445718 -6.937490135749426
-5.053304242101257 -15.46588027067424 -6.939235568756401
-4.983566279976392 -15.544502185566483 -6.950623821088418
-4.893375458205384 -15.606040612903996 -6.979804539741349
-4.826696166028993 -15.63393481256293 -7.006607384084792
-4.769848181312613 -15.653958787160011 -7.03125779677173
-4.713792761981486 -15.673643695608032 -7.056338033767972
-4.65985973684025 -15.696026220539178 -7.078631300077021
-4.607904038940761 -15.730016654060641 -7.093295132390449
-4.561017156045704 -15.756481989174013 -7.109478871768568
-4.504577626169983 -15.785244246130866 -7.130567382755164
-4.408393478828502 -15.825162689601832 -7.173656717322096
-4.326947999094829 -15.877268911733534 -7.200950344061123
-4.2723063097400615 -15.917113809026919 -7.217526619752628
-4.227336172695335 -15.948989115384663 -7.231013635438469
-4.176502552660892 -15.997269739217998 -7.240136390958371
-4.103761688155229 -16.06137550979753 -7.257216116291324
-4.036344077688478 -16.105704904303803 -7.28608954972127
-3.966490774794508 -16.15104781425257 -7.3209308948128635
-3.9047280506781377 -16.1869178103754 -7.353715826205736
-3.858993527707942 -16.197410606477106 -7.388633007674388
-3.822836042776263 -16.22806978082889 -7.409226639077906
-3.780402703959224 -16.253512025041474 -7.43650941369828
-3.726863805664842 -16.336966718065703 -7.438122633146237
-3.6655666966253815 -16.404296699331272 -7.465767292883068
-3.632983334222202 -16.46079845552795 -7.4673972610361234
-3.610307311103428 -16.508092307297808 -7.464739221943535
-3.589675006056269 -16.55593573201294 -7.461707135842744
-3.565224129366565 -16.62302019526364 -7.4525681310800165
-3.542523051133796 -16.68909313403617 -7.4458145042728185
-3.5251615940376197 -16.752486097756545 -7.438474748042483
-3.506850936294959 -16.840275134030307 -7.427585533741735
-3.4946724986215907 -16.900129808096338 -7.426890734213593
-3.4731043330435014 -16.995828750613573 -7.441277160811419
-3.4704729646603294 -17.047280884185184 -7.434470569639327
-3.4627381323095356 -17.12934071229536 -7.438768772640634
-3.4535497869070024 -17.177568740559327 -7.45586554924945
-3.4424549466091587 -17.22165540077762 -7.479832002530383
-3.4212051644184154 -17.299391517313904 -7.536314888823064
-3.3985174688292137 -17.334989556954994 -7.603221058224848
-3.3684781594423274 -17.348204539524264 -7.696319245000159
-3.349430981870226 -17.36571081585873 -7.762643568685927
-3.335580980658972 -17.37946724181113 -7.8155482576825275
-3.3227414921264575 -17.39458635808168 -7.868583054946682
-3.3104547284150687 -17.423892421697634 -7.931521073746338
-3.301427648936574 -17.4704380042392 -8.004123890548632
-3.2984957398348165 -17.516488662831005 -8.048819037645083
-3.2995511431551154 -17.592460110344035 -8.102073642811629
-3.301046828351888 -17.666845998432017 -8.159733499947539
-3.3005702359364992 -17.75783095788007 -8.268100412267017
-3.300607368067231 -17.801398676434495 -8.319479199514383
-3.300994341604416 -17.850300482820437 -8.371009022925438
-3.2996574884260435 -17.90426310913206 -8.466911276505668
-3.2986800148052673 -17.92847037588127 -8.520099440067376
-3.294971040085999 -17.93208921170009 -8.60199709083133
-3.294839043080815 -17.948566975938935 -8.67189433661521
-3.302895371451375 -17.98863926307665 -8.755266104210472
-3.3083210543646215 -18.003327007297734 -8.804682433121238
-3.3162023736879283 -18.019696160426236 -8.860490749816641
-3.3270473353220886 -18.034045848565825 -8.92703508180815
-3.3391257945818564 -18.043159152222696 -8.987239896984676
-3.346616028192754 -18.03369793916611 -9.06742272760247
-3.359811676773198 -18.026150336877397 -9.152863766078623
-3.36639055079287 -18.011282729599923 -9.22058752014419
-3.3936749126100283 -18.005079525002305 -9.32899603047755
-3.4286737708455597 -18.00440445458738 -9.440240268694597
-3.461952871122131 -18.021024287870645 -9.501306436509417
-3.4873722840921655 -18.035511992058552 -9.542017191401959
-3.5181736904212553 -18.056353801734197 -9.5813070723726
-3.550154213037337 -18.068732338917105 -9.637035265756245
-3.5737724440779903 -18.06862172708698 -9.68686738699671
-3.6176964683676704 -18.06452045582169 -9.782050196866672
-3.6570238646324986 -18.0784074897529 -9.834430791852443
-3.694230027876566 -18.083963876429657 -9.892400515229372
-3.7454034876175193 -18.098496718557932 -9.95830349747552
-3.785196752228461 -18.11144660611422 -10.00528908414448
-3.845921603531636 -18.1361555718712 -10.067236594095677
-3.9020233718396575 -18.175322340758257 -10.10484031885865
-3.9442498895428253 -18.199232608168195 -10.137539467372534
-3.992546421980621 -18.225751787697064 -10.174132257634215
-4.037503750326861 -18.249153574428867 -10.208136874445506
-4.078402365586342 -18.259729898337554 -10.247314091621007
-4.131312125909217 -18.271422715452385 -10.299045430769462
-4.1958949271078385 -18.289668005670173 -10.356464330909423
-4.240625663378809 -18.310077206431167 -10.38660762198988
-4.292891212925733 -18.337556588193323 -10.421213256341575
-4.333476629054671 -18.344130414218196 -10.455603453886331
-4.373411690920269 -18.360747666718023 -10.481830454013304
-4.436724032212831 -18.36623720122845 -10.540936326582552
-4.514710700079 -18.409470786711612 -10.585522546582675
-4.608928787694541 -18.429729600129047 -10.65363670330994
-4.662565722933264 -18.436687000025763 -10.69710051956744
-4.728731152378847 -18.445692841167183 -10.75014204516589
-4.772268775045559 -18.465755509531498 -10.777836627501884
-4.81467253815268 -18.456173636696963 -10.820580157987232
-4.858001901503627 -18.432030630227487 -10.877304452302903
-4.896228551425667 -18.42187626936813 -10.918918849915288
-4.949261619278559 -18.411128111955406 -10.969989241409857
-5.003913964874046 -18.45124051204805 -10.994824229487953
-5.060408418319726 -18.45287356594796 -11.041987642426133
-5.112391747506809 -18.48727755052956 -11.064743739437107
-5.172819190486855 -18.499391434640753 -11.110361984390602
-5.251745554233864 -18.498583157460082 -11.17682173242155
-5.30301873032993 -18.497696491111107 -11.220973631896399
-5.358298712344196 -18.495794176125674 -11.268870303793605
-5.414246775217125 -18.494315724705473 -11.316494046287444
-5.4887202273354045 -18.49285057523323 -11.379171425930975
-5.523903336704821 -18.482838445054885 -11.415019536284957
-5.560434677678234 -18.473271299120313 -11.449087216364303
-5.59613581312459 -18.46415618199086 -11.483222155921583
-5.631912056280354 -18.455044165343867 -11.517107420518302
-5.667578769304146 -18.445380557359897 -11.550878349111473
-5.702813142488674 -18.433888640969766 -11.58491523911168
-5.76883285901194 -18.411815715696257 -11.647130423988122
-5.805796065821509 -18.399097455033324 -11.682499147256749
-5.86082339192652 -18.380058780131975 -11.733519585927406
-5.912947748939608 -18.362514413642508 -11.779976266377483
-5.991953129818869 -18.373464303089783 -11.827244069141573
-6.035284364318505 -18.3759655033372 -11.854322907926472
-6.08379296616158 -18.380736257574455 -11.882440136330622
-6.160705185133834 -18.399803728768312 -11.919152658626095
-6.216288287449567 -18.41331236780446 -11.944690690332997
-6.2878864726831125 -18.4314131982615 -11.976539533390534
-6.350091199835797 -18.44685028854078 -12.00182931705948
-6.414203418457388 -18.46122927672202 -12.027920869533448
-6.476956278958948 -18.467060842983198 -12.055730211458407
-6.550022065263992 -18.477926759061653 -12.084037636932397
-6.626137686805052 -18.4779119903254 -12.115645782662407
-6.714982362232588 -18.4815199434898 -12.146405136108319
-6.787494542068988 -18.473030662805314 -12.17207146211903
