334
-15.644814260745045 3.5425092898618304 20.268829326065255
-15.671668073721559 3.483052065022415 20.25979015505467
-15.69207893219344 3.442344421272475 20.232038832604722
-15.714996843111846 3.3969032574774003 20.19934784401319
-15.738150735355788 3.350134144829484 20.15652661732874
-15.762351777079935 3.299680370482416 20.133786158799786
-15.797995911994542 3.221860946243816 20.10536976074787
-15.840262203505775 3.122637036287002 20.076303338108158
-15.85573583217888 3.0874044120484596 20.074608141990613
-15.874300202439837 3.042155169517807 20.073497332765363
-15.906206240786828 2.9583758072092765 20.064092755305744
-15.926917853712856 2.8947850065385863 20.049930688679403
-15.94077977337465 2.841728494366632 20.033725438389155
-15.953232414953069 2.7871147645441683 20.01455520405295
-15.963081096939614 2.7295926436660753 20.00010334208867
-15.97100499772593 2.6363796662265164 19.978803798486823
-15.966155604003736 2.557255239026106 19.95048687977814
-15.95867281031264 2.494926301830664 19.933578891420986
-15.94711265835581 2.4436265195977995 19.915208605029598
-15.918839525197924 2.377233875765074 19.867655821986954
-15.894522640393674 2.3339379826675044 19.831504614742606
-15.854834809647418 2.2660988451327233 19.781283273364014
-15.8069915116721 2.1859666195854563 19.734994423471463
-15.770990858134697 2.134721403877445 19.70147172907397
-15.724606661391245 2.075248385746346 19.66128348017465
-15.692079799942498 2.0366242177698775 19.635322126679142
-15.651050950950257 1.9885529807666087 19.604727749514865
-15.602091146238715 1.9362880178321706 19.569426426446046
-15.539660958681342 1.876642042158661 19.525785494194032
-15.492882699466904 1.8222706007737424 19.508199891284878
-15.451737024304547 1.7746151727511474 19.49553701510843
-15.408014034503394 1.7356441381561014 19.475578056519364
-15.349465626064408 1.6887868269863668 19.45322139486152
-15.284886704473184 1.640282540561886 19.439165345993988
-15.229460537653136 1.6188497278153928 19.405509322450825
-15.16046888429587 1.5944827239274408 19.367835191111443
-15.10866824287344 1.578802254736103 19.33928155061063
-15.044631662543972 1.5637040557524164 19.300690431191125
-14.956604219554162 1.5380820077687432 19.2633992007755
-14.881194154116733 1.5188089677970913 19.231961875674433
-14.81054720085891 1.5092048546912267 19.188356727189667
-14.729453488350847 1.5027296243342727 19.131351862808007
-14.66959073878644 1.4985602663217898 19.090964508502346
-14.62126839114146 1.4895348903102814 19.070785336725624
-14.570582683642558 1.479853546035204 19.051880048645653
-14.517552467264164 1.4704612727444788 19.032180692245625
-14.44498555810236 1.4566573374093874 19.010464609936893
-14.371572689765001 1.4462789410308314 18.982045954139725
-14.294055208691868 1.44137208847717 18.940735830716363
-14.206551843378657 1.440214764959527 18.885682877974784
-14.154966114103386 1.444449908634195 18.842272546634636
-14.076804674091123 1.4432541059960187 18.795664071913542
-14.013891155811693 1.4358321141802826 18.772123961235536
-13.95277064651752 1.4328088508343964 18.74133824090588
-13.872211654037438 1.4313116599882987 18.69443662151467
-13.776257149997852 1.4350045677236976 18.6276094796086
-13.699219539402192 1.443925103240959 18.56158662631004
-13.608251037908447 1.4552133694875922 18.48268017663705
-13.569107058105491 1.4621097233004923 18.444780679744227
-13.510837336756515 1.475835358625143 18.382784569270896
-13.471407983717366 1.4928245192573604 18.325421476013528
-13.446836847439343 1.5116596433200389 18.264968799315817
-13.396366341799297 1.5276345633463837 18.211058304127302
-13.368223108726456 1.5394421519005403 18.17068035526559
-13.338000512570664 1.5534172857714372 18.12641917263716
-13.302599082965994 1.5692545417963473 18.075283810163416
-13.269327059543 1.588911951407062 18.01848210074172
-13.24003330409982 1.6047166487828655 17.97155457525614
-13.204712826322266 1.6233802036910694 17.915882300655507
-13.177667084174779 1.6368264356575475 17.875381233818377
-13.135135106127127 1.662001104660531 17.80450885795157
-13.088307997300854 1.6903070503303823 17.726149621708917
-13.059356355986539 1.707514951977326 17.677117482031907
-13.028770834065812 1.7204547693693168 17.637366180250066
-12.968522124541224 1.7324570995990856 17.581460010783672
-12.90614713603997 1.7586560918675644 17.50108416898182
-12.861123888549104 1.7665600488417263 17.462034268426684
-12.792617777873623 1.7683670313994027 17.420142060244725
-12.694874650487481 1.7668599627782156 17.36585874465458
-12.629715384259004 1.764528206797075 17.33212305082653
-12.578373963631433 1.7573651689795957 17.313987854698695
-12.527675469725546 1.748708873931994 17.29949558249432
-12.43806104094861 1.7460979673544763 17.28216545157683
-12.375073208032308 1.7582050799181816 17.27022334783736
-12.279502870253767 1.748232625716919 17.23657213992432
-12.213477167545014 1.7263433434512043 17.203008814664656
-12.12377353175914 1.7163337794249571 17.150836096504545
-12.031933840613965 1.731316201044617 17.08835721170738
-11.974615211500675 1.752091293278026 17.032321341206885
-11.90431307290116 1.761941038573652 16.990394269932686
-11.825322065456444 1.7651873608290485 16.960507683242753
-11.73909788006176 1.7711728333153003 16.929121145005695
-11.67464141155151 1.7742480233790028 16.913109104448147
-11.603753379583992 1.7895392912072001 16.8798811153962
-11.522126091169552 1.804812628775192 16.851796773446992
-11.42487134819277 1.818872943656003 16.83671363283697
-11.316678302486466 1.8284086540876325 16.84550082984589
-11.218878124016157 1.8370235050811843 16.870773607841674
-11.148176249220802 1.847086054911343 16.89164071825483
-11.084447266846466 1.868615742871003 16.89345177591624
-11.015569271005143 1.8931593594858311 16.896238792989518
-10.940406537842659 1.9126171084857813 16.915603988363962
-10.893804378752192 1.923428567183736 16.93229815504847
-10.843642669331423 1.9369039052913122 16.9438509250233
-10.762731140431837 1.9522939876814815 16.981253813215947
-10.70905012471505 1.9631786003254712 17.0081016664385
-10.65708486157683 1.9726901974460054 17.04053028673773
-10.600618792819708 1.984764114558339 17.079307157677427
-10.563979757505583 1.98904888532567 17.117190381923855
-10.506422326993757 1.9989622891522965 17.180763670857633
-10.46238625183209 2.004071475810721 17.248156863946555
-10.431599085993748 2.0082729813461038 17.30231042750928
-10.406283295727185 2.012872128786052 17.350325463375288
-10.381985838639254 2.0119993191662084 17.428325237222378
-10.343758144170122 2.0253395653588013 17.503767544761324
-10.313420269263432 2.0371783767614593 17.572941278261947
-10.29151700285198 2.047166074935041 17.621319510126693
-10.2681850187969 2.060417809229919 17.66978297205209
-10.237590135828823 2.07817879075057 17.73777586964763
-10.21776525449654 2.0865649881970496 17.811030501170215
-10.202397969389828 2.09259842857227 17.87397157315209
-10.191153255929809 2.0951280603277764 17.927727464835325
-10.17490080577388 2.1012558228537044 18.002674218752926
-10.148832766776346 2.115708101828349 18.084957039474503
-10.115650372117747 2.1372229419307294 18.17490867724806
-10.094484438344844 2.151106814275445 18.230736455155768
-10.070516615587767 2.166456861716214 18.292939787865965
-10.053637829999987 2.1766031971419304 18.344822802277637
-10.038171878079119 2.185900481222629 18.39236453982557
-10.000247358608789 2.2152289670447045 18.47602779545337
-9.973820278067995 2.237823599647876 18.527110489777236
-9.943100838823517 2.263716022225437 18.5913363374338
-9.915371367724948 2.2834235646076406 18.658054791912036
-9.89082477402015 2.302143378037802 18.71531809055556
-9.873905381198098 2.3121030945382133 18.765331570934705
-9.848036908656868 2.330396540066693 18.825741081864606
-9.832353618056326 2.3348248483922633 18.880509936091542
-9.812769915101244 2.335249214712296 18.956950069137182
-9.797207846611347 2.3126947937938374 19.069185188310712
-9.783535327581223 2.2897600796796853 19.166998475623416
-9.778662226570459 2.2689479349560875 19.226598916132243
-9.77414317568773 2.2509170480108738 19.281030114244107
-9.769405773509847 2.2352663704699722 19.329244283398992
-9.761670091913508 2.2161616645919304 19.392837344870742
-9.749773321708078 2.1842303980201425 19.496049873112334
-9.734168322802375 2.1710394949477854 19.57285454854634
-9.718011908689133 2.159650727699751 19.648303721563636
-9.700845536201324 2.1539637914433074 19.716184964480515
-9.681318283909931 2.153336793905427 19.781396931016978
-9.659340344888953 2.139599635757909 19.87911844557055
-9.648585851262396 2.1302781958026378 19.93367006456459
-9.616379027354633 2.13931991634153 20.024745237949112
-9.582145387343298 2.1538495315474337 20.114257979148583
-9.552813295394202 2.168607796030879 20.188494023517194
-9.535564258905367 2.170142965294403 20.244191076760842
-9.51674589756643 2.1634919067887095 20.321991534657815
-9.49420416958659 2.164687964162397 20.396403828307562
-9.469992649545345 2.177550783838334 20.461329752059605
-9.451405718374124 2.179896703731944 20.522782041759424
-9.432303295299677 2.1810296086909107 20.590388987657523
-9.406651669445242 2.193069708948829 20.67392137442462
-9.378238470744437 2.217194087065395 20.725328228548868
-9.358909940026912 2.226333798365908 20.78451135195665
-9.340320070888788 2.223443294720492 20.86134710010692
-9.322130249911556 2.2313383069208133 20.91917683074725
-9.30050007226324 2.2393469326821167 20.993456988864978
-9.273898461908065 2.242325311289556 21.101350425626684
-9.251125389146262 2.250603816231794 21.18760434618921
-9.232950304042232 2.2582368208618666 21.260861333783858
-9.210672994054452 2.268395952260083 21.35399614226674
-9.182881362810559 2.2870361381928266 21.46500134653692
-9.157969995894694 2.3102952824601823 21.551573860626455
-9.127361087792146 2.342285800293438 21.650154815929437
-9.109257359154808 2.361038053323467 21.71487939305567
-9.090229583772148 2.3895365064455394 21.781765395762307
-9.076287732407975 2.4142812403272442 21.828585338916223
-9.062267936218568 2.4500315023646566 21.896507799797977
-9.049729387100149 2.4914400690532776 21.94985109427736
-9.053249141050568 2.518515572754853 22.004105744709452
-9.054922064443968 2.561834529848782 22.058899632759633
-9.062949082720282 2.5960491043880145 22.106655932486497
-9.055133454382172 2.679935478887443 22.16514335439164
-9.037836406237508 2.7772131350116416 22.20497141342986
-9.021383959794248 2.845376459801474 22.220269559130085
-9.016126631830549 2.8999730003255424 22.24007480358379
-9.012555866376367 2.9472289716694657 22.256508775029868
-9.011140003994878 3.045897125900823 22.295873442160225
-9.015053466225533 3.0949377364030637 22.317941315798805
-9.019957095266095 3.156381231013121 22.345590821694774
-9.027529932463219 3.2495368815353016 22.382670519401714
-9.024844482056869 3.316692089040159 22.396097991194008
-9.022394644219748 3.383600501264506 22.407750146107684
-9.022227196375106 3.461406517142138 22.42244405388397
-9.023689980095938 3.5167190151899836 22.432178146080055
-9.028084976420173 3.605281451836329 22.448951993049466
-9.024466389017155 3.6567025146176677 22.448073509298364
-9.020567514536504 3.7080306093832904 22.44699080464754
-9.017307142304281 3.769551274958009 22.44639586066129
-9.030467595028801 3.8865139353730216 22.464312941750098
-9.068884421398911 4.002432378895173 22.50039681757969
-9.082157014073458 4.09636646986326 22.503041874899903
-9.091362036981575 4.16511335029472 22.499254031995793
-9.097805910017952 4.219665752398547 22.49372585006735
-9.108070599661458 4.30221783375421 22.4824660131105
-9.118962601016541 4.36976240045252 22.473736349721214
-9.13162227212803 4.436643662189053 22.464290555223137
-9.14466872287315 4.4982021331593165 22.454559462606625
-9.167781149671624 4.58507534897466 22.44195187582406
-9.18902964781485 4.640602514842771 22.439202930137597
-9.215787834836304 4.698857334857943 22.43542462426759
-9.249951268664729 4.7916908672107175 22.418797856320413
-9.275902461551086 4.852507347208408 22.407154609735045
-9.303920920055168 4.912881064753974 22.39507797083158
-9.329917807343207 4.974022761772022 22.378737257720083
-9.356378020768211 5.02741564742552 22.36486771448854
-9.401826155372586 5.109409253185166 22.34363978577307
-9.440831832778231 5.166678349698862 22.330661161817158
-9.468577858137193 5.207575341962939 22.31977078240771
-9.514889772449187 5.280420380978483 22.295243960677762
-9.557473895214258 5.334811064944518 22.279121467801925
-9.617966675560528 5.413880670080531 22.252562201383483
-9.694193267015704 5.499599488817785 22.219954735455296
-9.723069206311745 5.5287819502467 22.20881207503837
-9.751056471240243 5.556983390025382 22.197218856210863
-9.787010367386529 5.592692022538679 22.181820266167584
-9.844841430445866 5.65119575683542 22.15388426947695
-9.890475990702958 5.6965072480856405 22.129885935058756
-9.931571790890791 5.741398519535461 22.103914733640533
-9.96989206483448 5.782760741668926 22.077529924190543
-10.03641467258635 5.84978575383944 22.03792925965052
-10.096616364179836 5.905172933331012 22.004647360973742
-10.166798707984858 5.956707715532034 21.977517486310784
-10.224669994036809 5.9935869541731135 21.958831000813547
-10.289796873302567 6.045921092748855 21.92576410166118
-10.337562878536126 6.07949130337295 21.9057271939635
-10.404516178817412 6.121344090564324 21.880986429178893
-10.44663110864272 6.153475319551052 21.859603955032686
-10.557541757351066 6.228368717169615 21.809037635433658
-10.61860064435552 6.265856824763062 21.784951824572715
-10.672329162473222 6.297817614569024 21.76249044194706
-10.726368110899287 6.330642866711766 21.73902731900584
-10.797648364777157 6.3736664599305515 21.707608258906813
-10.849679850585959 6.397504726702421 21.689012681739612
-10.899346158645942 6.4203563099969285 21.671299471145296
-10.984684588634963 6.457909793801618 21.64468725854919
-11.032052018853372 6.479939706419809 21.62681602925511
-11.089062431577458 6.511974739892879 21.599589754237737
-11.148648071436915 6.54530894937698 21.569129211805606
-11.229824124882335 6.587991674845813 21.5282340213447
-11.278164302203226 6.610449228092896 21.504961650348253
-11.323515677214807 6.629487061618806 21.485285312271483
-11.37676566494721 6.655249259392437 21.45623494402013
-11.45658097201346 6.692452328616034 21.412188150083562
-11.541357625063682 6.710451914791064 21.381102532163467
-11.624089834557207 6.716218331644934 21.35936659180016
-11.687180740879633 6.71838502018054 21.342741210651955
-11.750437206815654 6.720618150288952 21.323062692918565
-11.805643498773149 6.722822918499538 21.304313791316346
-11.872352351839655 6.730232081111651 21.27379769845943
-11.942899201076987 6.731896957748762 21.245796867010974
-12.000107410922766 6.733206284454442 21.221551015146
-12.052097755842235 6.745705825170883 21.185375319822448
-12.117710619197032 6.758222816762685 21.138898818693757
-12.22206631996804 6.7729293979451155 21.06408967447334
-12.312626501943834 6.780215260953805 21.001916157184215
-12.35578705980738 6.779842648102721 20.976418955993246
-12.401021390911025 6.778504852872998 20.950755679202473
-12.476012933756442 6.775547380363203 20.90713549420842
-12.531199358971737 6.772846533515522 20.87462578221616
-12.59869744916211 6.766101675389062 20.838748873018982
-12.663639364536774 6.753734321107106 20.81295942746213
-12.736606500361106 6.7372036541673905 20.789530132472933
-12.809483888985776 6.7175264315637095 20.76470671252481
-12.868795205938605 6.706812718557383 20.738003907935294
-12.955400665137553 6.683978602259301 20.706227392200013
-13.038858407895052 6.660313029726406 20.676462402106313
-13.09362705850106 6.64887765656773 20.647626106457395
-13.166319961774873 6.629451328299827 20.616269028165306
-13.221905210400147 6.6122748509949245 20.594818054138802
-13.296025969829323 6.587723935514176 20.567051494705456
-13.343927865184796 6.572431191498214 20.54590269409919
-13.446413891372051 6.541453385531985 20.492871494531265
-13.512834243391623 6.520814459594599 20.453777039945464
-13.58301957569875 6.491585309050264 20.425061932992666
-13.61875094870552 6.47495312719066 20.411712630804864
-13.658945475343591 6.456243714977574 20.3966957946146
-13.712312035583162 6.429076569417183 20.378969218076577
-13.776099420354932 6.396120029238507 20.35533258600769
-13.824944460389437 6.371689362540233 20.33167686612691
-13.876336070025731 6.345760251519031 20.306966912636394
-13.919214798364505 6.321193509347693 20.290674890095747
-13.97972655043858 6.284241925508005 20.272444651391464
-14.021105295990116 6.258101418618849 20.260270230197225
-14.095370671918149 6.2029643534999 20.25578385880063
-14.150593206540746 6.162098089208489 20.24915534779916
-14.205554000265122 6.119629610008654 20.244189178508723
-14.251924369757347 6.081965398483242 20.24271996440339
-14.32568050661962 6.018851564761305 20.24345524108524
-14.364430728116917 5.989795319244467 20.230610659472514
-14.40876607056577 5.952452586412712 20.22197853215023
-14.46126055021088 5.905879626367226 20.216250871892804
-14.512662303646987 5.858917282074869 20.211318370424223
-14.564857675137354 5.807218805859384 20.215367369764547
-14.613915893376253 5.755019083778778 20.220042660465417
-14.677052737604473 5.683565371712702 20.228849294252733
-14.705814684911047 5.651929839611358 20.236327193153787
-14.743492130320092 5.605683402062932 20.248015127421763
-14.798868412382939 5.5320089289045 20.273483885220315
-14.844570915889438 5.466110780517897 20.297584052938994
-14.891636504845879 5.394310488585098 20.327850009794066
-14.93962571594015 5.316179829220878 20.357250824740625
-14.992767157592722 5.221186511195067 20.391931511472784
-15.040837471731672 5.133574380502998 20.407950094937235
-15.079521000058389 5.060211330083308 20.411271626141204
-15.104424477357995 5.010604718647001 20.412489094254536
-15.13428404086909 4.947142822007055 20.41495909136521
-15.163142352605815 4.883227856267697 20.41558062169545
-15.192547303584993 4.813965443094191 20.415138698294122
-15.217411730776226 4.752361499333499 20.418281868116765
-15.24560381592224 4.67700291298994 20.426073721519472
-15.278168225211054 4.5818516781322804 20.440535865561184
-15.301962582013848 4.515108746571175 20.44114387962519
-15.32955455938226 4.4378777235829885 20.430012251164907
-15.354557832148878 4.365574699050778 20.42052385771347
-15.374068711601053 4.306875610734118 20.415381540469372
-15.394030546460517 4.246310409752293 20.408561521973386
-15.414390485727875 4.1834983129825 20.401325090076682
-15.44216012125449 4.096449815327461 20.39197224619342
-15.462589429773338 4.032173966077344 20.386896439078896
-15.481512253402078 3.9742040754891237 20.3782276177377
-15.501054038294257 3.913836008534541 20.37275814772052
-15.534346160102077 3.8132603971423675 20.367291611655173
-15.560957153390492 3.7408063593396763 20.35024620373768
-15.598388206522907 3.6477706387747437 20.320505080542347
