339
-18.191148541058652 1.045288372055436 15.857733114498606
-18.24781510934318 1.0130646173802718 15.790701031572208
-18.289143517286906 0.9896097414630813 15.738365999156608
-18.32114072475065 0.9743776775906787 15.69054802551198
-18.353815751724426 0.9601632847171522 15.634332279471195
-18.386362735049463 0.9415840821246317 15.576607824114069
-18.4214763556972 0.9147188125772714 15.508157052001788
-18.451930903857548 0.8881052905401359 15.43369185344541
-18.471059044673673 0.8681549596291487 15.369689965139168
-18.49139426055308 0.8395387348150698 15.315466471712796
-18.513550327233407 0.8102240407543388 15.246907828514702
-18.52569418109297 0.7946892725238084 15.200584702413938
-18.539396988952284 0.7702512120923317 15.147314939522337
-18.548981603117774 0.7550769743237331 15.089055921038984
-18.55431899417436 0.7406652113851746 15.025828601632464
-18.55675321335405 0.7253245819122136 14.963618258352742
-18.55650996986074 0.7138759236954892 14.901349864890191
-18.55076350931144 0.6963023701989983 14.803082482559233
-18.544171887784834 0.6622676520209407 14.718018331883982
-18.533919186004123 0.6465486372086047 14.638211491445638
-18.522460658883812 0.616529534658405 14.565062269824837
-18.513951321558718 0.5918937018512094 14.512396752396661
-18.506248796082676 0.565950294524082 14.458290084757962
-18.496806620387197 0.5465982229520274 14.402623059752463
-18.485570857459397 0.5174099592893202 14.334102094729806
-18.478540081196808 0.4932840226495876 14.289144775670177
-18.47025511540866 0.4568177442842676 14.23677386650404
-18.46206373948321 0.4098369883691624 14.177477564248608
-18.454718185963753 0.371199553481135 14.128751053318764
-18.443280045798833 0.30646637074243843 14.054773141245423
-18.431423982054028 0.25536135073262 13.978431801021877
-18.422272540622522 0.21077701039004282 13.925955046699775
-18.41603308842781 0.1765085462566791 13.889819105529638
-18.40633509114888 0.11915968994302828 13.836679627018853
-18.397059012111466 0.052310642845729394 13.793220697714048
-18.388953253994696 -0.011191892040431473 13.759970657541919
-18.38387691251678 -0.06006531103232904 13.74760446652493
-18.377385571982153 -0.1051319456243367 13.726324720215784
-18.367925700310696 -0.16515614380197752 13.68918380530112
-18.351328337738323 -0.25577864207552636 13.647621577309417
-18.33725302091135 -0.315167752267274 13.60695648587778
-18.31771743747549 -0.40041886321234 13.562032490981888
-18.30104283960919 -0.45802288446107164 13.519976228505733
-18.278274838584533 -0.5334956776640394 13.477681176546689
-18.246528851131345 -0.6188499806811021 13.424979330857752
-18.215405048969302 -0.6507108978636214 13.335599315693441
-18.18765142220996 -0.7023024715997477 13.292232852991901
-18.16608177349201 -0.7329362870283584 13.25662257017013
-18.124755372111355 -0.7894631150057609 13.193163804876693
-18.099285261381826 -0.8217342317159231 13.162177715255707
-18.069551251077304 -0.847943987860369 13.118471655663118
-18.01767671863936 -0.8657440657266613 13.0324941452568
-17.983341322959564 -0.8773845300677467 12.981548847055798
-17.954275153546934 -0.8785833931308011 12.936652872782613
-17.90864039573721 -0.8710283815738795 12.865163656426654
-17.873091249966002 -0.861936874975981 12.811291037835861
-17.804033955402517 -0.8720757956822376 12.728359143914618
-17.752742515508046 -0.8792043826106815 12.669494539544623
-17.71203152365969 -0.8821252431955999 12.622554556457976
-17.665563074041856 -0.881916551476142 12.568870040689257
-17.61249438691838 -0.8791209668691455 12.509605805823908
-17.553337471846913 -0.8867094032911012 12.444323992204081
-17.492488803650698 -0.9089178379348191 12.384056805469516
-17.42496888114262 -0.9570421849983273 12.324974989395592
-17.378523601289636 -0.9891089425548509 12.282141265222236
-17.315451614358288 -1.0298097312323518 12.22179808729667
-17.28067140678802 -1.0459213535461456 12.187813705668969
-17.231548769218495 -1.0620105426832924 12.138454756029791
-17.183197709044315 -1.0628034463200007 12.08380702708135
-17.105901556188506 -1.0764633173044995 12.004495754445035
-17.061190620255687 -1.0836390807774317 11.956113893395816
-17.012012635449427 -1.0806321476488279 11.900719479618449
-16.96162678829586 -1.0899057417106834 11.848432100124146
-16.907994425989965 -1.1224379149462353 11.801814935622907
-16.866205456584453 -1.1429364299564537 11.763029839196175
-16.796480211479615 -1.2020868103832876 11.708859747251433
-16.74879962362724 -1.257193713599619 11.678239693559082
-16.71665577957357 -1.3022122523114583 11.661227182318825
-16.685180743076735 -1.3440578057545824 11.644067934309312
-16.65282174175731 -1.381200022437032 11.624428197408331
-16.602509095913465 -1.4011178077734234 11.580772197780355
-16.540979518719592 -1.3990268850935843 11.513043553353818
-16.467776253052932 -1.4131075277297676 11.441367394486226
-16.399950517000445 -1.4388651571181135 11.381481384180368
-16.332828055340563 -1.4772214823691625 11.326793590440968
-16.264355547981005 -1.483536750834355 11.258245643018757
-16.1975199770182 -1.506429422251077 11.19890575880658
-16.141616256107877 -1.5201252992923364 11.147102132751828
-16.094160515008838 -1.5354783190944596 11.105052596901004
-16.039362654460177 -1.5563677333499304 11.058833115187051
-15.998306729440742 -1.5631212706049555 11.019185205121303
-15.938487555704231 -1.5765461427388856 10.964071296885923
-15.873340279691298 -1.608560682196305 10.914898090508423
-15.800435602188516 -1.6533983683001905 10.86811018745345
-15.752750620933227 -1.6853380292886686 10.838876430851645
-15.707415286627436 -1.7155550266715047 10.811187062815703
-15.665043543637157 -1.7465728532061318 10.786526733702242
-15.62457741934566 -1.7738985699831202 10.763017395979666
-15.5762945941135 -1.8061241743407548 10.735153632565098
-15.502861207737329 -1.8449646348436808 10.689422361976089
-15.42960931281446 -1.8792371423184209 10.644529753986493
-15.365105431769454 -1.9028401125428325 10.609887078888184
-15.319121924776868 -1.9218799391190347 10.586981983103001
-15.258120840520835 -1.9462418144316376 10.560334902024747
-15.199229811323454 -1.9573915068907541 10.530325887785226
-15.106559692186746 -1.9964517057089983 10.499384986500463
-15.034294381327431 -2.0143139752599506 10.47028412612286
-14.977190782299303 -2.0293614303743084 10.449433007804332
-14.931158235025697 -2.043128490935821 10.43335654144651
-14.872543550811278 -2.061899843220822 10.41432687259709
-14.8145192833114 -2.081466693706076 10.396730318893066
-14.742256953464018 -2.104654736182643 10.376139358943188
-14.65451245742064 -2.1199348797926 10.349253411541287
-14.558799522025996 -2.112045735542888 10.310541627524909
-14.46103162040895 -2.14063849621947 10.288587204594585
-14.406285944627855 -2.160870080182779 10.279296727592904
-14.337158202604263 -2.1806294893873885 10.265601821431316
-14.252664363406272 -2.194477332752849 10.247303681044304
-14.183748663675978 -2.1943339158601356 10.229839642813108
-14.107903583045701 -2.2000470889343946 10.213901958482104
-13.996340354501221 -2.1945576306041206 10.188812747589221
-13.933511942856219 -2.193095203893905 10.176060546555455
-13.84352533082173 -2.1920096892168623 10.161148728941818
-13.751554017977249 -2.193353171740208 10.147891724023351
-13.647637819416678 -2.180619330168115 10.130019435100895
-13.589166853725247 -2.164075855329268 10.118371278241439
-13.515549148506327 -2.1413002076714336 10.104753920542393
-13.461272983253043 -2.1363007814501414 10.097930532464265
-13.408935432701124 -2.1163988946455086 10.090234916673877
-13.333491328461141 -2.0982165358856144 10.07819566730646
-13.269683667466301 -2.071625476685409 10.068891248903498
-13.186707467562092 -2.055394734244274 10.060357807816898
-13.07136233819632 -2.0488418117071743 10.05049610095594
-12.991248660204704 -2.0431922888587706 10.044512116865693
-12.899306388517694 -2.049404727489192 10.038747442969589
-12.810389271529653 -2.0421653855251307 10.03485543620844
-12.74441246767014 -2.033401394482919 10.033724412858852
-12.68400691793384 -2.018859350276349 10.035190966995646
-12.60328716311491 -1.9830977902602016 10.043990251957887
-12.557054759189217 -1.963747142292183 10.050117568740223
-12.508076544061012 -1.9500947470256307 10.058411398561418
-12.401231796649224 -1.934688459122181 10.077393442741602
-12.30105066917701 -1.9333958317002922 10.096855822841873
-12.238304643717077 -1.9270324382802286 10.113352145870124
-12.185311704722436 -1.9156038585851403 10.129790514310766
-12.10297194351889 -1.8994187542199032 10.159092507876483
-12.043831490488165 -1.8807474444748333 10.18313295869627
-11.984098438557366 -1.8648079339494021 10.209772695346501
-11.922745883732436 -1.8342988046148134 10.242513184616598
-11.872968767090269 -1.8175389588764408 10.268749396875894
-11.817141272159708 -1.8105842407501918 10.295946981266264
-11.752382159413568 -1.8130522069614212 10.32584137776674
-11.697488930487822 -1.8111323851262178 10.354304643888408
-11.649052668339687 -1.8089665808057087 10.380688481181043
-11.588173998876838 -1.8100881970170075 10.415303215724968
-11.48016334331851 -1.8235077456646809 10.477476236018708
-11.396070761812066 -1.8227126382205876 10.534127744910823
-11.355281137828246 -1.8195431403719335 10.564106007239133
-11.300582002551497 -1.816802731680002 10.605427557714382
-11.243083872108864 -1.8184474865737377 10.649106969850498
-11.183736403302285 -1.8207285044509338 10.696705696851794
-11.124396454355267 -1.8267023261730828 10.745741110379903
-11.073265074244835 -1.8321922762237826 10.790855493132717
-11.036646636336892 -1.8365837612720972 10.824758233856794
-10.98909137560092 -1.8426618357984936 10.871125247531962
-10.942957112760421 -1.8492136715261482 10.919221524600484
-10.913741058649467 -1.8537143774874716 10.951527519320067
-10.870513357313754 -1.8608898276294057 11.002453376620242
-10.82897292270328 -1.8669706682771385 11.054292826268334
-10.790562111875166 -1.8746129919236643 11.109012948938394
-10.753637816224744 -1.883134610408229 11.164657265602699
-10.716572056630339 -1.8931278043824207 11.227455935187018
-10.694940747402057 -1.8995363336925841 11.268437971313457
-10.668608915377467 -1.9098150034551742 11.3218191605615
-10.645103242412032 -1.920558440481034 11.375923526165291
-10.622380962038413 -1.9309705691097303 11.43129313207151
-10.600977770583869 -1.9415566289786779 11.489316482008089
-10.575401810026667 -1.9563134209839443 11.564476677947715
-10.55058273905873 -1.9799999344919945 11.650478759841498
-10.537254807213163 -1.9891294983753836 11.701717668509286
-10.521798819571716 -2.001632717975427 11.767107553007424
-10.507654231561654 -2.017227932410071 11.833032106216521
-10.495303032088367 -2.0313801273930148 11.900177716733324
-10.484319948068684 -2.044015267050371 11.968103031931072
-10.474970123525107 -2.054360050735031 12.036760861005064
-10.467079476841368 -2.064280400256987 12.105726936443073
-10.461285678876456 -2.074592250367229 12.174804498356105
-10.456689348854676 -2.0861599792721086 12.255204470714864
-10.454903389905166 -2.107062175053991 12.354008500275013
-10.45552319788606 -2.1116890263506147 12.420148152918546
-10.458041750620854 -2.1074742120680803 12.501395984854938
-10.464337202764282 -2.100600006466068 12.590223059137807
-10.478474158405666 -2.1112749080641584 12.689825410960207
-10.494925871796115 -2.109820204443685 12.777983611609404
-10.51331355627027 -2.105431107083776 12.85840158117375
-10.531492074510538 -2.1093090982402867 12.923082097302403
-10.551796028584226 -2.118275920202012 12.98571158951698
-10.57851679026139 -2.123276179801916 13.063168551365882
-10.611370485781949 -2.1132801330638853 13.152257690692196
-10.636359649132896 -2.106150972430804 13.214569123974869
-10.662568586703147 -2.0926992989162674 13.27672344108856
-10.690152124647705 -2.0809439159860084 13.338717968135896
-10.724803463046724 -2.075550961303273 13.411166647419662
-10.759618010194872 -2.0685769698109735 13.47973497226734
-10.794752612300266 -2.058929640360389 13.547196401670371
-10.836777277485838 -2.051298832568482 13.623748287028553
-10.871073234433705 -2.047667553758671 13.683605531402801
-10.906450853350838 -2.0501392531492795 13.743134390775426
-10.941682441611732 -2.0541268726269744 13.800943450333437
-10.982660075268683 -2.0430382642006 13.8674748673823
-11.019927643665172 -2.0491620673988913 13.924908693763316
-11.051264460137155 -2.0495236367245075 13.972611657077628
-11.082986765181147 -2.049512813536275 14.019168472538993
-11.124749177448846 -2.0463490381992266 14.077624656958987
-11.192966215871738 -2.0394910032503066 14.170046562827084
-11.242463112107341 -2.0513566348934464 14.232198256699565
-11.284532088768959 -2.0651415018752277 14.282423726950544
-11.333005805238937 -2.0790015301203155 14.339158136821123
-11.37072097471689 -2.0872304478159625 14.382238560342694
-11.414455790881467 -2.093247052255128 14.430297239417348
-11.45967392997567 -2.0973163801635843 14.481178416830069
-11.50385121126577 -2.1006345893432 14.529959009095919
-11.550030948340854 -2.103711752844447 14.579507255824096
-11.596333156882862 -2.1072269020141645 14.62837413659283
-11.657212027528214 -2.108880084694518 14.69268000647238
-11.695527325936366 -2.1140405410609873 14.731203855395904
-11.744228383316589 -2.125458895018551 14.779831310379846
-11.794354207404588 -2.1381313375264632 14.826476123577557
-11.85040533771463 -2.154677658984698 14.878063963670925
-11.902904310527216 -2.1696784696679154 14.925375656773767
-11.973327620097919 -2.1752966690865048 14.993343562007173
-12.034311160494278 -2.1957057388322543 15.045529115461054
-12.086449611791181 -2.2133554148121197 15.08904433049623
-12.12794134643281 -2.226490721266221 15.123498827162853
-12.188911524411914 -2.243538751694441 15.175053720708355
-12.2416050682563 -2.2573912343208713 15.21911968582712
-12.296176988163413 -2.261702817394468 15.26755793711817
-12.361143448972005 -2.2635621656593523 15.32526557186409
-12.418061464479589 -2.2572224223847024 15.37721694029363
-12.476539392266 -2.2517233134012287 15.429559808656434
-12.540245850192065 -2.242184449177145 15.486960629292879
-12.614524152693905 -2.2413391702095815 15.548816763573805
-12.65481477202176 -2.2330575095270344 15.58512637434814
-12.718874090706292 -2.216385335137609 15.640289911473495
-12.765405994355605 -2.2158265606319434 15.677740660592425
-12.816343593436708 -2.2108210484038944 15.719486276460415
-12.882841420850147 -2.2006860631229523 15.773496679905916
-12.94360345796414 -2.1897669871860908 15.822368097912422
-13.003861225279994 -2.175623271825792 15.87046660361131
-13.082463512840045 -2.1536647298197455 15.93229577198389
-13.148032965810513 -2.1363845615252712 15.982879450291435
-13.214400410993012 -2.105757453296931 16.033616130744846
-13.25512872044147 -2.0865293544096475 16.063471454017847
-13.303396518643108 -2.063056899157662 16.099925754626504
-13.348775519390083 -2.0381556824656157 16.133066112017914
-13.39729023186189 -2.0062809960207217 16.16735029954159
-13.449405630582891 -1.9678914876879876 16.203485852179142
-13.502609159325925 -1.9263993535012616 16.23928115988587
-13.560446220763765 -1.8802151331993096 16.276952012136142
-13.60212030175719 -1.847819374309589 16.303210142602918
-13.692680659333233 -1.776975758042891 16.35990958797102
-13.765065651937222 -1.7212823017835714 16.40412656530693
-13.814390303559344 -1.6717116426936154 16.433007575237866
-13.848711693433206 -1.6363100743871226 16.45283270983955
-13.90673884862918 -1.5829814682953094 16.48627560049938
-13.942637536554718 -1.5523512569439601 16.507431820036366
-14.02222633046566 -1.4861443755941326 16.553764770270348
-14.07521698735121 -1.4316273390403436 16.58342977270611
-14.128858111574242 -1.3843900938975646 16.614238168132985
-14.168250809098591 -1.3491473044918645 16.636992894886394
-14.21567193294725 -1.2943116020668843 16.662327071456687
-14.262661790251357 -1.2367600315988097 16.685651634829142
-14.30242169665663 -1.1893990049942023 16.706301243903493
-14.351405692720599 -1.1279023267043362 16.7304278803757
-14.417420185896141 -1.0510098842191877 16.76448793230665
-14.495475503143856 -0.9708364385922383 16.808234357433847
-14.538857282678762 -0.9317754390542325 16.833234045919077
-14.578869648734118 -0.8957327513600024 16.85605058172137
-14.650722200974624 -0.85885212937553 16.899582667343953
-14.691966233887436 -0.8280002668328987 16.92385019389503
-14.755794294462866 -0.788196734798833 16.961971675446243
-14.82888289874984 -0.7619807096537983 17.00224742643701
-14.90607445274998 -0.6862958263877141 17.041445149300774
-14.962572450258953 -0.5939934288808986 17.066118249292472
-15.005069272326754 -0.5499433717318039 17.08552029324398
-15.076945476891577 -0.4913479773499416 17.11605006394671
-15.178317157580645 -0.4031757806940379 17.154058205609
-15.25508026712544 -0.32847387471619793 17.17716254958539
-15.308062732557138 -0.27885569979985814 17.191551797367453
-15.355754571203928 -0.23470889487800362 17.203761128971337
-15.400517345842815 -0.19521084401163868 17.214952140588366
-15.46635438011647 -0.13783687910176523 17.229623850308418
-15.503554929952912 -0.10285888420282951 17.237255484389962
-15.554379369402643 -0.05976661552207263 17.24697762743233
-15.614278505110375 -0.008229688797298351 17.25784685453837
-15.64947649543391 0.046448660966809996 17.258787926303846
-15.695823977936062 0.10514814114631088 17.26180068448371
-15.767022082121267 0.18290266855325754 17.266412620555613
-15.811060914667499 0.23719386550955202 17.266898643398516
-15.865943311035766 0.30676127449258983 17.265431890990904
-15.909314146319543 0.3567796297927912 17.26398970519349
-15.97055670901355 0.3953087226599812 17.266700256878067
-16.0567020786984 0.4769196094078718 17.26130298549862
-16.132924562305778 0.5316043815626661 17.256352673057272
-16.2155348521278 0.5798282615107824 17.249430671406408
-16.31970130774753 0.6176929033428347 17.242631391151967
-16.357589271061837 0.6329643256720856 17.2386512532481
-16.431308967435296 0.6691588630716159 17.22728291949766
-16.48583805234121 0.698394052213239 17.216385855147468
-16.56200166771997 0.729962910225662 17.20209915868352
-16.61213344336694 0.7546847663543237 17.18991664895031
-16.695654192964337 0.7841955763112991 17.170765986898438
-16.770141573935476 0.8095136388528448 17.15267528289875
-16.836188213405382 0.8280393131043504 17.136481478910575
-16.891897155860043 0.8499984983455451 17.118002975319605
-16.94921205155229 0.8747748369719495 17.09631558867332
-17.01787617987172 0.9083777968658047 17.066087055466173
-17.10615973298008 0.9580521642625022 17.017283871088885
-17.188888062297636 0.988166539345309 16.97481254723514
-17.232498712201235 1.0016932296869778 16.952087336882933
-17.287162594576724 1.027598394680123 16.910711775187387
-17.357263074248785 1.0504961728453721 16.856896803288915
-17.430010243986917 1.0728517295343258 16.791641555883334
-17.479684238924616 1.0873988125758518 16.74221906381311
-17.557540162744242 1.105187523120153 16.660399327126537
-17.60002064792411 1.1051022540205806 16.620371219001154
-17.639792332493514 1.1038498357240791 16.580770545300155
-17.6759721466355 1.1064407990991545 16.540857247952008
-17.717804115583647 1.1106428612544996 16.49228298595748
-17.75905900944297 1.1145148308322468 16.44369972473892
-17.807420286872 1.1160711774184207 16.38926207348073
-17.846871960487977 1.1183019393106206 16.34526526863681
-17.916311300938382 1.1212899374551006 16.265232801015856
-17.97356349338307 1.1164163865487384 16.19547531960257
-18.00877426404056 1.1092450644183462 16.14815685617409
-18.050756335391497 1.0958333943400196 16.08384072093692
-18.08670974440935 1.0813052811398047 16.027317306861207
-18.11614450220602 1.0674143773759828 15.982986571779104
-18.16303114707742 1.0551592514277481 15.898701758451258
