334
8.111958992637762 -1.1060358904657903 21.819904673317996
8.047369574035312 -1.1178457711422523 21.79887659097835
8.002966855714938 -1.1384762452311343 21.782786469386018
7.917872942857752 -1.1945515232811057 21.75146931088926
7.870164337238732 -1.207630418521668 21.731743917383305
7.804510556890868 -1.2513182729109387 21.70447657488315
7.743666837966714 -1.281256836837652 21.677654267357603
7.67779156693166 -1.283420798273255 21.64569856750484
7.624311542040884 -1.2960566551319186 21.61789275754413
7.544773268379892 -1.3128631807816764 21.578601881140596
7.493000011884604 -1.3380901255432254 21.55355871326578
7.442596961647286 -1.3379370118832425 21.532939296610063
7.390675047522414 -1.3543432313206951 21.511307049950936
7.338447435452796 -1.3794110427569493 21.490120948831528
7.280765939429417 -1.4133790984401098 21.467688692905227
7.214314765173469 -1.4558855558918253 21.443819292220695
7.1430543744005845 -1.5018548807042298 21.421837162742992
7.077570742305026 -1.5453420401250262 21.40417840418079
7.014391044768672 -1.585819320264978 21.385644126247396
6.9394892630426686 -1.6281452537236474 21.36156093207304
6.867952859476398 -1.6721814354627744 21.33072349762312
6.79431767435101 -1.7101607230951288 21.291564218103854
6.730694282599277 -1.7458618514962798 21.24669356302057
6.656373428054977 -1.7753752574259498 21.196036296449257
6.5823999908920445 -1.788128571591137 21.147611418294225
6.514854338867105 -1.7968286216153206 21.0937617019878
6.448462944989223 -1.8016628060958197 21.03443557003158
6.3917232469599154 -1.7953134225525318 20.986842200860846
6.329721456873476 -1.797747364033786 20.954155345987573
6.271209681067612 -1.799862953749352 20.923912472824338
6.179704222840569 -1.7982215380406368 20.876346814887214
6.116163521514174 -1.7922043967677173 20.843956109859636
6.055051484472832 -1.7971320031023796 20.814019372599418
5.987168471573545 -1.8044487926488353 20.78106957219987
5.93360600526257 -1.8064202374405722 20.754228114923503
5.8633362963927045 -1.8077189595684224 20.71933906241231
5.814912642817911 -1.8065085397375058 20.69573722477506
5.718334165072794 -1.8012992474287808 20.648822724544747
5.6304271816098215 -1.7930933027005214 20.606546983951255
5.577789104801797 -1.787795041156143 20.58178359183629
5.518459291571006 -1.7963426266745328 20.553578585207305
5.473900755917816 -1.8212847144054347 20.531909854419094
5.419510695666442 -1.8720142140323666 20.504400600946724
5.381976934944947 -1.9059546273794101 20.48514767047084
5.327886266162412 -1.9552745956482327 20.456617095660082
5.226916634115165 -2.046041062876505 20.40126200764998
5.167666491978559 -2.06807322098704 20.36725147578644
5.099486211398449 -2.120036861119039 20.330788439650654
5.023217028203421 -2.134063200052829 20.29047024289231
4.967539910111394 -2.15636753413895 20.260387149840763
4.8888439798683105 -2.165561095290611 20.219377459216197
4.833022332331624 -2.170764295855809 20.19038717189501
4.740584173819609 -2.1584666224629467 20.146366915946174
4.688724572495269 -2.169019819517048 20.120145900556242
4.605065272654047 -2.1683551130697953 20.077035398544123
4.527846839703182 -2.1798123101592877 20.036648857783046
4.4910356307560555 -2.1836429012729246 20.01781983628212
4.436985826916343 -2.1800752096701435 19.992192104164413
4.342296896296766 -2.1801293336589476 19.945989627026474
4.286907774476095 -2.1904644508400906 19.91661092762359
4.227959801754055 -2.19875780894165 19.886283414417445
4.180941163420388 -2.2088419690246637 19.861347409909378
4.129931326030132 -2.2204863529351706 19.834280037965197
4.081847893638072 -2.2373014380237093 19.806319753224017
4.005869995820084 -2.2618111561591214 19.761919592082528
3.9187283914969546 -2.2929208021335707 19.70976369478221
3.862834622684245 -2.3169635529079646 19.676274392354163
3.7702019419788106 -2.342307882185335 19.62689011589941
3.6811849523230284 -2.3664938104457365 19.580238981164168
3.6231215116237907 -2.3806733964234987 19.55241843835432
3.576477066370453 -2.3904927262689104 19.530454932758808
3.5230718047289127 -2.402766939715903 19.50568490330606
3.4619746219080785 -2.4265310893595853 19.473964418499236
3.3989478083091083 -2.44898547481922 19.442397853668005
3.3179542647086304 -2.476211645635422 19.401440379647642
3.2516954365937973 -2.513960500129733 19.362932442403757
3.2161250180473386 -2.5417716064549363 19.3392044655743
3.1530235112054656 -2.572924234581726 19.300848506128123
3.050535955817768 -2.609257053600307 19.235497467807964
2.98612591021156 -2.622681548485203 19.19124323950433
2.9392454456180355 -2.620139815311596 19.1603397639075
2.8659935473915734 -2.6121453915809503 19.10522744907311
2.802356701116592 -2.596319500653211 19.052719121002514
2.7483526166133485 -2.583553716098303 19.001937359427412
2.7059994096241997 -2.5686027476277453 18.959255395235978
2.666662960164346 -2.555643219131327 18.915476315108723
2.620390401570675 -2.5375237831151325 18.862361074341706
2.5872300509941226 -2.5220508803537616 18.823053106694438
2.5309035973141043 -2.502976367497412 18.746417892421874
2.484898733318216 -2.4924723336189127 18.675369526926254
2.442760443666109 -2.479231462908872 18.606661581217406
2.403962217929572 -2.4650695479827074 18.537633489523735
2.3676187240067055 -2.4461042292757083 18.47296106630476
2.341352770577065 -2.4254956378397448 18.42792340229901
2.3107911513695747 -2.4021792608635706 18.371215700270234
2.2791186816757536 -2.3706989366835978 18.311864689030294
2.2576652693278056 -2.3432051339395183 18.274997518402515
2.224553970713502 -2.2935666936503796 18.21972778727404
2.1946347028737536 -2.246011289970416 18.168077867554608
2.1760374432048453 -2.2183018157712726 18.1306764658924
2.1533314669242793 -2.1826107170208946 18.08294088017559
2.117277492177756 -2.1126298709398452 18.012291719003954
2.0903852920667996 -2.0588274733417005 17.949940975057014
2.0645268063544684 -2.008704415681872 17.85139395673352
2.0474626637153994 -1.9642338647835373 17.79403121557648
2.0353316191359303 -1.9265174165370693 17.746152278881116
2.0220745419811514 -1.8738026369228549 17.678877629360905
2.014732121281087 -1.803483894254379 17.581201101916385
2.0173954841681176 -1.7525114578364644 17.509639184115244
2.024384647306057 -1.7110848332588988 17.44734882164767
2.0383995347257597 -1.6752808093979032 17.37710285067585
2.0540818663004634 -1.6448113214521318 17.317330927765934
2.0733109554026523 -1.6129746422493105 17.250381710261497
2.0922369169319257 -1.5842004363205109 17.19212799822866
2.118896206267916 -1.5443177949105977 17.119050790648853
2.148091323257984 -1.5047181492701251 17.04760434592068
2.171761097507834 -1.4738960203313698 16.991903938353957
2.1960522896879144 -1.4391796287530139 16.938948919187936
2.228285350292772 -1.3984698814148264 16.875273938927975
2.252825593955733 -1.3777989214466726 16.824654167075135
2.281013413778811 -1.3571728496508402 16.765266561118995
2.316801188372316 -1.3257758119914902 16.698362909198817
2.3532875053709237 -1.2828031395892334 16.637512379181405
2.3769054897560666 -1.2573434548456475 16.598057915992353
2.411644836056909 -1.2277806975317223 16.536467636981893
2.439276750723276 -1.2050758903576582 16.487782075016998
2.4628591920306766 -1.1875692138684442 16.44713268612375
2.4935921385549538 -1.1627636919652073 16.394852126617366
2.5209271093835284 -1.138717587000483 16.352046919814555
2.5593755596952263 -1.101164020308203 16.295756062981887
2.59403826994233 -1.0787630950721252 16.243876750153767
2.6284703971772228 -1.0601541335425448 16.19340581559135
2.6813901104661264 -1.0173076696541914 16.122620234099237
2.7131541983682803 -0.9972545030171984 16.07994984690139
2.756749869736355 -0.9745002779175373 16.022610257176453
2.8053604559602974 -0.9587038893973427 15.959657096554473
2.849909601819844 -0.9482741431794781 15.904238286939542
2.9127131740192738 -0.9338503278007226 15.831227139281971
2.9758231005780313 -0.9342116511253247 15.760437539865595
3.0431868265572355 -0.9716589003438356 15.695543770560693
3.1089286130980947 -0.9849035226130423 15.636942592985157
3.1835430966686022 -0.9555484857574323 15.564619128680022
3.2779747445741156 -0.950157248102752 15.486273354281792
3.3637271181538386 -0.9254848533937907 15.4163190278976
3.417459170365735 -0.9223823878045283 15.376187201275421
3.473778533843795 -0.9208059901798551 15.33689214933646
3.5188406290651315 -0.9178426976782599 15.306817900051442
3.576543275748403 -0.915350972678231 15.269580133542469
3.671912091660376 -0.9478265863071527 15.21780571398953
3.741812066890991 -0.9671210340189051 15.180302122663537
3.7994643655177853 -0.9805279233695359 15.150358949546462
3.8770068478548154 -0.9974024561409967 15.111075490515994
3.9340613328635836 -1.0074977893826431 15.082054788177082
3.994118236557438 -1.015241619364811 15.052128324075017
4.050291614307543 -1.0199450240269194 15.02426630447749
4.110277010798892 -1.0228838893587615 14.994277869770613
4.165684371236311 -1.0205193338753134 14.966194030387943
4.224213313189464 -1.0169939558233625 14.936838705097415
4.2722671332651965 -1.0186545598594612 14.914047997921141
4.337853878402478 -1.022993892582026 14.883619473818026
4.394431727966158 -1.029685332340717 14.858045431824017
4.455671946210425 -1.040725188158282 14.83208571979609
4.5402276794471526 -1.0572744832640875 14.79783840642131
4.600921245396724 -1.0728667984884779 14.775667774363924
4.648393269944388 -1.087331277294794 14.760019712035408
4.694236670328871 -1.1040131769795996 14.747717622871043
4.764077277227894 -1.1480287334723838 14.73238374444238
4.8183866751815945 -1.1819213373640283 14.72165419064493
4.885268866982643 -1.2063027379302453 14.71101879161979
4.930501054630279 -1.2282868058843213 14.705193863518296
5.000654266184532 -1.2664694011954878 14.698734106890566
5.0858580131114035 -1.2983809905418537 14.692816482823314
5.141042947283341 -1.3273659546889305 14.689911772485601
5.196397587188633 -1.3651941390379077 14.687168061312072
5.2429655876785715 -1.399166166085036 14.685335693829341
5.3141173650393725 -1.4476844773323645 14.683329085142194
5.368853243412545 -1.4646679980784842 14.68404969660028
5.43634510619098 -1.481759501189086 14.684712090717671
5.491395529160068 -1.521007529567929 14.685537590192066
5.562159413209861 -1.5558719352026307 14.687170064826724
5.619998335138666 -1.5686535009304996 14.691162641720421
5.707885979671114 -1.6110232623589407 14.693595965320661
5.824279203942817 -1.638841124276011 14.70204728111192
5.891772456229328 -1.6645081128628645 14.706884864643111
5.976502002446334 -1.7004256228513666 14.713262717311082
6.039338194033302 -1.707603848102908 14.720425390650728
6.100548164580825 -1.7301978194866825 14.726361711370448
6.1677658399971245 -1.7544487800663444 14.733253545316956
6.2234406519363 -1.7613404939417814 14.74112527125111
6.289697824940673 -1.7654289102003862 14.753490178930797
6.403078769353301 -1.7561436650511286 14.776659244248087
6.4908391100848295 -1.7582608378176419 14.796508614541168
6.567583117343636 -1.7696134286417027 14.814188883464102
6.629800196741103 -1.7852318317725544 14.829666122311277
6.679206421181661 -1.792652014506689 14.843750140183559
6.781025065432372 -1.7843274019978619 14.878306619397982
6.829037294297629 -1.781857676629215 14.895636769211603
6.893222176593531 -1.7940239033041676 14.919106435058165
6.954333820809474 -1.8012330825516591 14.943266554059573
7.011807912823402 -1.8162716394662568 14.967026422456414
7.069038269568889 -1.820219169867928 14.992924254774515
7.134132478072864 -1.8416163386247617 15.021829050561543
7.208999470709445 -1.8574046519441292 15.056485961375312
7.294153276912418 -1.9178933240240297 15.102658515089711
7.353660582049697 -1.9419126946771494 15.129210263299871
7.425908093252675 -1.9791929804670274 15.16510497440673
7.492198594598301 -2.0137311681569514 15.198038618755575
7.554052125637773 -2.0347604105695507 15.228878338179864
7.640642528500949 -2.0961520080668175 15.275203883275925
7.719913603836391 -2.13617285734464 15.317898755292418
7.785378485295 -2.1472301867745784 15.353780087737668
7.844138559565852 -2.1466948413027924 15.394465740700998
7.8865600425367255 -2.150917468977622 15.423756832116108
7.9253871273637255 -2.154782006741952 15.45056595043448
8.000598840499714 -2.1740627500035212 15.502647151832285
8.095461156078585 -2.187009843346915 15.571713446531177
8.166601395636295 -2.1781108245350076 15.62607280042561
8.243740463442567 -2.1480227751753 15.687367858625116
8.311952031820496 -2.135655556683947 15.737695336454689
8.358408126092144 -2.1186940795916196 15.774719260171967
8.410501161424877 -2.096532952529841 15.816822419138084
8.479247136869663 -2.0818914524566394 15.869804998244962
8.53126061111518 -2.0428033460593666 15.918644577704985
8.594059742072137 -2.026240596398343 15.972715551483713
8.644231510175686 -2.019492216154342 16.016778808283476
8.687143237344385 -1.9611819934772758 16.06517298416617
8.732181484055388 -1.9514128504161095 16.10920801888681
8.78537531855292 -1.982697803273557 16.15662925362023
8.829610641831442 -2.005502093820028 16.200733239410653
8.877531481967852 -2.0660162962024478 16.24403103433515
8.923227563115812 -2.0925427411589745 16.293825267033508
8.969620764736398 -2.0922730038414734 16.35163115549077
9.02388117351543 -2.0712314668501173 16.434414034343085
9.068854482809375 -2.0930044557428813 16.495014265813804
9.098532349846556 -2.1035629053823737 16.539055074684946
9.13103903830845 -2.109142613190585 16.588432281947565
9.179430313205147 -2.1316207058144725 16.663979779434886
9.213782184682511 -2.1423894359666016 16.719582470446596
9.250584183833496 -2.151911852631419 16.780022673149297
9.296517906119357 -2.1653188144505995 16.863699463486032
9.327847455023747 -2.20001006388513 16.94969065379549
9.372804072297038 -2.22611304378644 17.012261856983894
9.41677554470267 -2.239875349016964 17.065085467727318
9.453509556361489 -2.2667263614873403 17.132072450958983
9.487748961846773 -2.3076616624089095 17.19287610488169
9.523338434248545 -2.307069068157747 17.26018896201673
9.564463183316855 -2.2706656176841706 17.330303022675427
9.600728611769906 -2.2552666300734705 17.394423249107636
9.647438421981477 -2.250604588021544 17.476976924642514
9.685353941567165 -2.2275873123984735 17.53976889602056
9.718757703678689 -2.221861335000779 17.59809479996403
9.745542231906903 -2.184063659312995 17.63935654305703
9.767784935984022 -2.1480842236597226 17.671500673979807
9.79912327098358 -2.1090584683318436 17.721452446721653
9.85059164418726 -2.0643662315972833 17.804504739797256
9.888905793946428 -2.049082357241553 17.87353954689632
9.915247790693792 -2.0411966708930214 17.920115098750962
9.935686292728084 -2.050079917755357 17.964899107233343
9.958974886899437 -2.0501337345998394 18.01215338891151
9.993886141349215 -2.0428450722905267 18.084530538834724
10.0243703006879 -2.02482592672122 18.144853270116418
10.046733680953453 -2.013978417380398 18.19094081667573
10.093245837202838 -1.968664417598173 18.280536685968496
10.131198710966743 -1.9369003654650294 18.359276072975437
10.167163308231855 -1.8854508061347777 18.42034810410002
10.20744496812221 -1.8385573542755802 18.49685977151438
10.254712737376982 -1.7617148105902949 18.578314266243563
10.275303177587409 -1.7335767298201539 18.61738558637235
10.29788595940423 -1.7060022926909957 18.66136997611527
10.325450397018013 -1.670540030454326 18.717602729053457
10.352453571189082 -1.644593450521762 18.77444895316985
10.390109518210952 -1.5978105421100697 18.853359742355376
10.430868970873393 -1.5327212467152518 18.939502615652046
10.45503333540966 -1.5034600402309226 19.000914602702306
10.479397430519771 -1.485765413848191 19.073879807646833
10.511276579409342 -1.427506975281149 19.16050154565798
10.533757483239071 -1.3948753478572313 19.23432398168174
10.545436576546793 -1.3622059973215235 19.27920202433159
10.563323433293862 -1.3199162248765939 19.362293076847696
10.569324839033026 -1.2647597586565205 19.415624839194923
10.571703631555025 -1.225722436867811 19.455326078733957
10.573246670110155 -1.1853940443024436 19.50271343817514
10.573690259335699 -1.1505456626954214 19.549301295495678
10.572275952041435 -1.1070655345561362 19.61183463305599
10.570830547816351 -1.0796670491311438 19.657547886422144
10.568046800443895 -1.0303519046450504 19.755260557746613
10.565427047382032 -0.9918652566044868 19.86547896218179
10.560714181806553 -0.9596615769342436 19.93415443805258
10.552185593803161 -0.9238567913950768 20.00280108531649
10.545613591129682 -0.9049972927118546 20.048900057056315
10.53473050222675 -0.8923763562512157 20.12532737020912
10.522028832777366 -0.8828612067121968 20.188906311316067
10.50579912303871 -0.8653122407158431 20.24557060997548
10.476519551715667 -0.8580009431539057 20.33427002867532
10.445233554332063 -0.8441440072818396 20.406341755632067
10.421501996609933 -0.8360233168227267 20.451966079411935
10.367866952467157 -0.8255177318487066 20.548222619930698
10.32153933195953 -0.8208597315241435 20.623657728878925
10.278305660955473 -0.8179654365684921 20.691258929728345
10.21237013498032 -0.8109949963022687 20.786277708557098
10.161521052684277 -0.8031218007466023 20.855832419298878
10.102847406496009 -0.7960884312240499 20.93229931360409
10.072360382800674 -0.7996558748673932 20.979686345192047
10.041485114856341 -0.7970610602103667 21.021754266210255
9.980938845197247 -0.7837034315617903 21.103095770712166
9.945581681891511 -0.7768209550233189 21.143931652031164
9.893303382354352 -0.7674750447168761 21.205783447140536
9.85901382629943 -0.7580591366654477 21.242698585323776
9.818941907279289 -0.747326970228213 21.283968665138612
9.78027313667542 -0.7454904129278512 21.324108766438123
9.716514459054347 -0.7461327615669737 21.386723241941297
9.658829155479697 -0.7381134249848769 21.43205450586758
9.588747362799475 -0.7323298746208415 21.487356850543357
9.541835112172922 -0.7350142987217483 21.526896333225437
9.495421903463376 -0.7365754685364476 21.562387583447958
9.445412861684565 -0.7381355529884193 21.597483061215257
9.399634163418211 -0.7450278470059186 21.625101820660188
9.36183894375787 -0.757325026513012 21.652864025588634
9.312181899329717 -0.7691916141257131 21.680993147782054
9.25780880659564 -0.7824109822789347 21.70320015345478
9.169412448251178 -0.7993020623615315 21.745798846329667
9.073577891275963 -0.8180524528683275 21.77567439737092
8.995738701661685 -0.8277036717012289 21.79726211670897
8.90656263951527 -0.8427122747068423 21.813195438279063
8.817763337855409 -0.8508409229195824 21.82565287477282
8.738492582586955 -0.8648174003870679 21.84330366007415
8.659629993511494 -0.8915131541691101 21.86008464785248
8.556973984841452 -0.9291671847374889 21.873241236855602
8.486082479272296 -0.9566639859139054 21.877676840834773
8.437771098404525 -0.9782502435729139 21.876922474305307
8.38725904663454 -0.9998603691741423 21.875309581892378
8.331748705370641 -1.0192577221405528 21.868966065723964
8.254513562507078 -1.0448075317432193 21.856049301274812
8.176866738569377 -1.0846042923062873 21.83710413827956
