325
-0.008060854382055171 4.123910386722494 24.408558417884596
-0.04836455505925508 4.037359860690682 24.387271983553294
-0.079044335826496 3.981053814738354 24.36594224043402
-0.09642583906517788 3.932576547687479 24.35698892941808
-0.11728922044383971 3.8619356985181112 24.346262589113174
-0.13823405899907715 3.7951873881951497 24.331205343993094
-0.15969212930104526 3.7221309559711755 24.311768415887336
-0.1735993046977765 3.6661925955343038 24.29630242592472
-0.1867440762437006 3.6036318176296738 24.277454830370786
-0.19912645589049371 3.5233387909478835 24.250334897439227
-0.21079237189113897 3.428205499872347 24.205056604962554
-0.21173138284217285 3.3810202916017826 24.185169855259243
-0.2086736552305034 3.3207480725808725 24.157684267666188
-0.20218935108374614 3.260515099266303 24.127957162404318
-0.19230093610441912 3.1971561198226026 24.086605005080955
-0.18067135409611734 3.1434149844741914 24.04433189800905
-0.15864508313057446 3.069512429400825 23.96852286756247
-0.1315343315056402 3.009659536156392 23.902198023594647
-0.10053721172979946 2.956144984666683 23.835777238203523
-0.07413328075973047 2.91757992315597 23.77006951744116
-0.0547915011600254 2.8926152968053445 23.723921784732106
-0.015769049304830363 2.8490831731154906 23.62433269394084
0.014275790655457254 2.8203697377056396 23.55416644322747
0.03502412626958129 2.801331860654391 23.507564235779267
0.06601652713286921 2.774124887085787 23.439352656391016
0.09505487607820906 2.749872809360014 23.39296025552094
0.1372801533349859 2.71457324722479 23.328586231485218
0.1835815891843654 2.678710710549703 23.255877388030417
0.23836878741060263 2.6438625016251645 23.150642772114153
0.2643915431268147 2.6250322516977103 23.112189334211013
0.31801341046990894 2.590198114639638 23.025901155797627
0.35588074415244886 2.5697826484024797 22.95638312936745
0.38360856114350383 2.5564933043805005 22.90208881848093
0.4297539149832874 2.533787731359904 22.81677737532487
0.4564391992729224 2.527145294925487 22.751676639415518
0.48482307551284076 2.51552209947844 22.692939980667234
0.5146276169940474 2.5029474740142894 22.639673168672243
0.5626084732014671 2.494341004242632 22.531233248030034
0.5826934638516065 2.5032478609383157 22.468485163454837
0.6082449067377795 2.513755179799126 22.389227979432157
0.6304190100445941 2.5264161115436274 22.32420905578096
0.6479687833659258 2.5357682530485106 22.275265369688434
0.677271818702065 2.5359042682520667 22.22387084141835
0.7149502712835594 2.5344797555252403 22.160990339280243
0.7771130559799189 2.5253490624153634 22.075459265248586
0.8352267814467597 2.4932625449556256 22.025423588296206
0.8864914777438765 2.474648429030904 21.96751744703492
0.9508951467862131 2.4728641696605647 21.870601120055145
0.9983906595119186 2.4663692358410176 21.806044272843227
1.0368894964443027 2.467672657217283 21.74553088864118
1.0706846802122936 2.4641814807883553 21.697044418134812
1.1083274276645818 2.45773971457387 21.64378952819878
1.1431098022766668 2.4492204527270123 21.600159562482038
1.1851565001545752 2.4368553979631558 21.54647650169445
1.228468222698305 2.4307706281254062 21.48034875370188
1.2639627072561308 2.4233042983340565 21.427829456413097
1.2984703102042157 2.4120130188284157 21.377809395447745
1.3375795570056188 2.4093803206077857 21.311078079533697
1.3639677365547285 2.4139299375351473 21.25843793168643
1.4104131386981775 2.413197041307517 21.164776268342944
1.4410348947886922 2.4212955264432687 21.095797294681905
1.4698433520553804 2.4283461670428585 21.022516081374995
1.5067654746007118 2.431591780113171 20.92155854825074
1.527429486788003 2.4425498925051445 20.846117588886308
1.5510936483126878 2.4551810186702405 20.75943635388705
1.5770393716207622 2.4705038407982634 20.65297583413024
1.5932358703031078 2.4719121512013795 20.59356217799527
1.6139452295646621 2.464144444089746 20.532210907591494
1.6311765048630136 2.464273649297524 20.46740021480235
1.6477215167025308 2.4590313915239634 20.415090306609965
1.6627687266716773 2.459562852592683 20.366380088386492
1.69341621604893 2.46334298588581 20.267669609196513
1.7140491960759086 2.4673554032775384 20.20470310703063
1.7238329972881545 2.4708811790864824 20.176029388906773
1.750288710329491 2.4973041894079784 20.089560578573714
1.773287594972973 2.5188115976733827 20.023807514920563
1.7990077135232507 2.5431089592225864 19.95304715946578
1.827430983977195 2.5445515930320615 19.910812384012434
1.8570644024029805 2.5443326068884375 19.867010979182847
1.910794342086131 2.534302239595576 19.80183896245739
1.9427576076666586 2.5362837925918478 19.75851947972009
1.9775803602501174 2.5395608390854423 19.714304919053575
2.032822830419339 2.5358853482232404 19.653014027859456
2.0832127358410304 2.555023453178707 19.585177941886244
2.1178855225714273 2.5610413376466634 19.544900882888864
2.162984187028953 2.565636938788074 19.496784067042793
2.2177775018577393 2.5607024245175993 19.447746105288306
2.2559941763651183 2.5577982395585397 19.414748649621895
2.3205052677276425 2.5605731237271194 19.35596126889769
2.3802474424673545 2.5566533395530295 19.308541509093114
2.428967443536561 2.5531977508954706 19.27160771971483
2.472843092733744 2.553607820961361 19.2373038546402
2.5530097074509013 2.5517177165523557 19.17874748441958
2.59667733066003 2.5476073415480625 19.150403801954802
2.659604909228515 2.552567124705815 19.104465355241544
2.753267993500346 2.5678830042688925 19.032233188066712
2.8215609685179563 2.561454381834881 18.988114569361866
2.8957160179193844 2.588469709238695 18.91895008620771
2.963088289601722 2.601461881124377 18.86559925976362
3.0218731737861946 2.5986906433594608 18.82471329260433
3.0915074902591564 2.5910141216705216 18.78228321322081
3.1913554515497897 2.603558317620816 18.720714880312624
3.2510910059662814 2.6096065378267084 18.68981529159717
3.3368370089468584 2.604586266131459 18.6621391582802
3.4255509007419342 2.5944143586025032 18.64624230152924
3.462136942738173 2.5915851194769224 18.643336642402378
3.518534297553282 2.5897510811951396 18.642348095344705
3.636915097584834 2.56331675469314 18.66605874406078
3.724869266999545 2.5531462679295056 18.694557716778952
3.7883025457163204 2.5474548865934055 18.723050530608234
3.844735248092737 2.548769690464878 18.749392122425697
3.899980042397968 2.5469377252370005 18.779266984008256
3.943856209938229 2.545213501578217 18.804255835778182
4.016621027211963 2.5263237519008457 18.857099703758553
4.084594361002664 2.487065479499037 18.920560732072172
4.130724368348531 2.476847180932794 18.956328867630152
4.178840543049868 2.47130951177525 18.991621645704587
4.246467838267299 2.4417714427066053 19.05813589674013
4.318564430068071 2.4257915070626104 19.12124974351887
4.366460670578452 2.4100693176845343 19.16804773200554
4.400026848380496 2.3913378371793663 19.205802967455952
4.433899399148369 2.370704355838092 19.245985701715572
4.465295390237118 2.3482676293165645 19.287129458896167
4.542187206641082 2.355220204928466 19.34521554873228
4.58250406222153 2.355540481104341 19.37912954134292
4.621623423733468 2.356076668508877 19.41225697203087
4.6595510530472675 2.3539161241434576 19.446381680303702
4.697151407393744 2.351501290954572 19.48067464743118
4.733880531358914 2.347881295404991 19.515480173429985
4.769514339063259 2.342521049003531 19.550945537734798
4.8220139106984625 2.3342669361059776 19.603987176084424
4.900797725833148 2.3213379326700836 19.68481090672127
4.960594397039568 2.293512291869176 19.763863769179217
4.99703508405189 2.2911604033333295 19.800298231163964
5.0439950561464135 2.287500297521284 19.849606409291642
5.088644896567821 2.283010549955535 19.898081891509896
5.145765780803979 2.2771997262130355 19.959740421641847
5.187308273975875 2.277963216093054 20.002579410799797
5.227243482465338 2.2783691278136238 20.043780222561836
5.2811442935450446 2.2774666107227186 20.10381454854401
5.36468996070126 2.277349805812493 20.210076414506684
5.415384377740161 2.261415186725151 20.30160039545596
5.44871941998648 2.252735093876869 20.365848891168945
5.473183653563289 2.2465741858463404 20.415549866352745
5.503439873521944 2.2393464796023195 20.481565248979198
5.525309611347002 2.2356366332437463 20.531370604950073
5.552846458735355 2.208974080641188 20.619408319130184
5.57683205733534 2.2042961080044887 20.68166522199522
5.6065939662143345 2.199626239787896 20.760761424027145
5.637515784182661 2.197328673601404 20.8442246807188
5.6547721688106405 2.196499753968044 20.89178025625654
5.681348575927356 2.195375709642509 20.962894753037133
5.7107123682307686 2.194889066507112 21.0368374079422
5.731819069587911 2.194434488535101 21.08891512536679
5.784035808575587 2.2137920846693953 21.193274119865627
5.829936033584473 2.2322567246069025 21.274307772336737
5.856595813271768 2.237619250870164 21.317765649706352
5.892705122489985 2.2483069639006383 21.37055513289029
5.944148585884142 2.2709898682074114 21.436039230481413
5.976725171309373 2.2940800425882046 21.47315368685939
6.032886434610618 2.329893947834828 21.534545512380543
6.093308821940815 2.364836142131367 21.596576359329756
6.138327235367916 2.3901863082812578 21.64246723073497
6.18457312222766 2.4129025002437428 21.689681933287932
6.230404776464057 2.4337816223487603 21.73743786950814
6.276789464677532 2.4557235740942356 21.786630330282748
6.34593960210944 2.493276541903232 21.860931603825744
6.411550944149354 2.5434683192950156 21.935007409087532
6.453356217755929 2.57639465289583 21.985929820115576
6.491902867245919 2.6090038427655595 22.039363520157554
6.52002016603024 2.6306354874351823 22.08325842490396
6.573146766150177 2.6679014713291083 22.182459874898388
6.598888764138772 2.70356073005186 22.246849168090833
6.620439662700494 2.748114344535017 22.31745652956727
6.630598492487304 2.7811842608189106 22.362779109644503
6.640007373914666 2.8249508505725163 22.419786075160992
6.6469106365178865 2.8644082385457383 22.471936429102684
6.651366078293735 2.9031305069897093 22.523648350913188
6.654355636337272 2.932501471913602 22.577041174065617
6.656190947904795 2.9773477055573445 22.650124416478306
6.656104810169866 3.01316141612686 22.707928206571435
6.653566970700761 3.0479254075369657 22.785018519693367
6.6464413076579705 3.1156768511628736 22.850729330922935
6.638620692764316 3.17073651009478 22.903315642312496
6.631274829476783 3.2171302602501863 22.949264675908342
6.619450194031983 3.285339321999141 22.999354465195893
6.610820249279537 3.3323698044437005 23.034902317945004
6.6023009899146325 3.3765565152520414 23.06301650468262
6.585910174306149 3.475673422839711 23.08586958040894
6.577059806610654 3.522317694702601 23.110897732258252
6.562549063734094 3.5861766310038123 23.16758552000532
6.549582026765707 3.6460867137338444 23.205284749406584
6.53862023566226 3.7081921114847654 23.22442653186349
6.521993923506998 3.803241910012186 23.247611927825094
6.506935795259651 3.8941945162750646 23.26552098227408
6.492804193990689 3.96605878261659 23.28469318495743
6.477108779947307 4.042577352227255 23.300166223545922
6.46625866167501 4.098798512654076 23.30845992899665
6.453125412983672 4.166300879638667 23.313684219996546
6.442692489700394 4.22416807683449 23.31274035162932
6.42862227368795 4.292030448678876 23.31587645938093
6.408862072317958 4.395729965269238 23.30908057157587
6.390333022900297 4.48774573022353 23.30195472204198
6.380883176140714 4.537716788551958 23.295276707420985
6.3706640186419365 4.589116234433405 23.28730581466
6.359808451254372 4.638293691177113 23.28197013171025
6.342446807198921 4.715829348487093 23.27324557315989
6.325622974244971 4.792030637309619 23.259081795261938
6.315453375501816 4.840024565480382 23.248261803117725
6.304711477408267 4.891742746929278 23.235262166880023
6.294447855727113 4.944292485832332 23.21913660208593
6.284021344634047 4.9962422781776805 23.2032099333236
6.2726107562810745 5.046906076304628 23.188860321194568
6.260713297886834 5.094602776435604 23.1778000190174
6.236788064171882 5.180148450349263 23.160713814170595
6.212176240131029 5.249856492100225 23.153566871986918
6.180733227953748 5.345825476209328 23.13079270163685
6.161802036009353 5.395985284828228 23.121573372421707
6.135594868273994 5.458781732770239 23.112180224226204
6.094723917739711 5.545087279165715 23.101110573475882
6.053998663110758 5.604613376384117 23.11033356883186
6.017793483047648 5.659329466770929 23.11208662755391
5.981031991752316 5.714402087061384 23.11071765602915
5.9204403850525855 5.803169558477087 23.106022228421914
5.870266374503067 5.865309049289948 23.10711648838505
5.836024621841938 5.9053120228389435 23.108699396271316
5.79904643157493 5.945578971038072 23.113199247480996
5.753844543352051 5.986307537628241 23.125789375708553
5.6975591816567634 6.036346306344523 23.139486644457488
5.644329519222871 6.078604755077157 23.154838116010698
5.590903199415838 6.11915764215288 23.171506428393634
5.538266613790308 6.164369182295642 23.176593447648244
5.46820745165843 6.222845351967145 23.183072486238434
5.399745583493167 6.280521823262939 23.185279069157474
5.353800472054466 6.31384537125572 23.190530728743422
5.310321659640043 6.340842714577899 23.200280582458564
5.2622346128591175 6.371569692346766 23.206534674861615
5.193836530406489 6.413870283122556 23.219360189688267
5.13535324125375 6.450019852719041 23.22618894064906
5.075817185309809 6.485248859749607 23.23213256058368
4.99194255561562 6.53334858285538 23.239735419525022
4.92075605559115 6.5751676605505125 23.243399692467047
4.87555824469597 6.6026242842747305 23.241683778318347
4.800436499087052 6.6473285113969425 23.24348100933081
4.720016267197199 6.672308889846427 23.260570875134594
4.648567262887748 6.697158561646418 23.27660110111965
4.550413021754343 6.7181276589504755 23.30412791826455
4.501282559220454 6.722780132030861 23.32374528416389
4.446214739108695 6.724542420440347 23.347909660797786
4.38984168347141 6.726485498297947 23.370595475764752
4.342886241075796 6.727038555650328 23.38993964933505
4.273509990962066 6.725156191717968 23.42019966958046
4.2061608206319265 6.722551450188853 23.44823985072934
4.153498454691551 6.719594135828981 23.47000677579352
4.091894529093959 6.715920290168784 23.494856203048773
4.029384763220653 6.711815175394715 23.519061789587674
3.9660567242315143 6.706952463787591 23.543343766130427
3.887618239958544 6.700781421647207 23.571658723119164
3.7917193580195363 6.700033367718584 23.59838114237895
3.7245654479773562 6.706096086770625 23.609801728941907
3.6607104313368786 6.708440671251985 23.622997093424075
3.594961797346994 6.70465311289022 23.64196772530416
3.5222965149627186 6.692830939252513 23.66938669145321
3.455895278733829 6.679011874895588 23.696558883143716
3.4069337760457796 6.669253887016101 23.715342959973906
3.298592605445651 6.6538864843249215 23.74983275746892
3.20542727571992 6.640756754926279 23.778169595939392
3.1560179189787827 6.631392431443285 23.795041876500786
3.0876914877743378 6.615409958635993 23.81930674102998
3.0179747423001713 6.595162063840323 23.846954370024903
2.9534019029112657 6.576691895988043 23.8717478046446
2.880642129439261 6.556538392373316 23.897697634844967
2.825777981053646 6.540259732632812 23.91767315767241
2.7750955835923143 6.527023622426885 23.933897487099596
2.6769665783758843 6.510082275104569 23.956710390315493
2.5980171703898476 6.496215972949988 23.974598882140203
2.526538333355256 6.4809613324600495 23.990051029134804
2.4656732498959406 6.4654163205034045 24.00521935935154
2.407271956789729 6.449529851453741 24.01929160810529
2.346181547439711 6.43269043299186 24.033604750996165
2.2807338220804136 6.411026716286571 24.04978307392656
2.2166067607812856 6.387159997539602 24.06633209722047
2.152167256034932 6.3590847659994445 24.084266312591158
2.0894569867370474 6.330637358745054 24.10129118322772
2.0261897043963795 6.30393134483886 24.115893330829568
1.9620240953123895 6.2785592831181205 24.128523288167237
1.8880983595497507 6.251331310856177 24.140319510534862
1.8304795339607827 6.231873546190556 24.147564652856815
1.7622526566986756 6.216285986670151 24.150284741874597
1.6615443633457772 6.188966733778365 24.155862355621384
1.5678288467001056 6.142505950555883 24.17200944478238
1.5139680490098573 6.116760961702571 24.179779618059985
1.45030383536796 6.084107599712073 24.189380016414987
1.39668677297467 6.028047694163213 24.212696966760447
1.3290283773323854 5.959089639451296 24.23956738216481
1.269056894795833 5.915811784229442 24.25079543908804
1.2084738537361375 5.856150001054461 24.272507751895443
1.1613694676975639 5.806151317732406 24.288859703628386
1.115760747008827 5.755125366010395 24.305133284952536
1.0716594636843948 5.703598575924271 24.320944198912006
1.0303954834359912 5.654729935730957 24.33467954096265
0.9825506041513205 5.607666941241064 24.346616211982962
0.9263186670286103 5.550606864387351 24.359585170076908
0.8482985559650823 5.474312452865414 24.37531600790576
0.7810484082740483 5.406743432297155 24.386607715964697
0.7159834881572958 5.350353162181113 24.392855691433063
0.6706460727167843 5.3019939576566735 24.398987009210725
0.6294304386838969 5.251142307304306 24.40620315790067
0.5723203476521768 5.175811293874414 24.415850539134688
0.5187791837314153 5.117378680252116 24.41812799286568
0.4645400991863057 5.043076983861049 24.424003694156713
0.4284003594342999 4.978545193384006 24.43183474340669
0.40551353120723826 4.933754049989675 24.437647980644307
0.37196927439809596 4.865683042340022 24.445999781864412
0.34028948095027206 4.798975099127819 24.45380687076443
0.3086807310592835 4.733176727239641 24.459709945698002
0.2771633146764964 4.669032546855833 24.464001685085957
0.2448955223731798 4.608681844317196 24.464527863933657
0.21040586026820218 4.552614935990357 24.461199049782156
0.17692231256277324 4.4887466790018635 24.458979326440495
0.15037916365022663 4.444556831936131 24.453552304772924
0.11968346787444062 4.38207498218677 24.449676460412814
0.09351240097092856 4.324270834875401 24.44633880362096
0.06468863892817672 4.263713919153677 24.43939587588166
0.029444497229666966 4.196466940138203 24.426125398325645
