434
15.96915214875236 -8.395418774993077 -7.247640287051265
15.935080348530843 -8.402759721350822 -7.207075235824305
15.903941172329464 -8.408041334496358 -7.168123416710874
15.870224281601399 -8.411398015185236 -7.124385288045969
15.83077522204082 -8.414748540566961 -7.072345362178805
15.781411881549463 -8.431740249230227 -6.997284981470674
15.749462670471864 -8.446869961065971 -6.945961750884287
15.717373869820168 -8.460920807737761 -6.892712982150472
15.682009701354318 -8.47709324331886 -6.8319168989669885
15.638480318168689 -8.48428749573476 -6.759995303734665
15.58386132943404 -8.490398955407356 -6.667952229200498
15.555918031768801 -8.495157910382595 -6.618950643844222
15.521645836691008 -8.500434050639765 -6.557996256545524
15.464306689972613 -8.477379875978098 -6.469975601300364
15.427087471491937 -8.46072608694629 -6.414666587309459
15.385641215535092 -8.453841571498593 -6.343129847076952
15.356383887298165 -8.451329772126883 -6.291598797561647
15.322591031373623 -8.450166265103492 -6.229988879786358
15.285216412399311 -8.446057404744638 -6.162730327465521
15.246929317549633 -8.438990403376936 -6.094496828812812
15.211318260685818 -8.425279129018753 -6.035081784033887
15.184760538097777 -8.41289432069631 -5.992577400206246
15.136967371894762 -8.381702427297087 -5.923181393293758
15.087665756727155 -8.325958391952623 -5.8682041547508605
15.052644611731708 -8.294295345581943 -5.81955300866057
15.001008779720006 -8.292600003750291 -5.717860198303047
14.962366303114319 -8.28703804079384 -5.644459608712606
14.924971049702911 -8.31196766733985 -5.548281533282885
14.901614026604843 -8.314840940600362 -5.495565093150153
14.873905916631479 -8.32632697322422 -5.4212128336072265
14.856049351862659 -8.333788395304092 -5.3745343379932455
14.84000731817547 -8.340742348490943 -5.326069467123164
14.824620348240394 -8.368809308055509 -5.259933515526091
14.805110845082975 -8.401773544553503 -5.173414439129523
14.779320198650382 -8.416128825231738 -5.082261227089419
14.759944587750702 -8.426266107661363 -5.011092820095346
14.740100870028222 -8.426720119879926 -4.945999880963603
14.7184974645319 -8.431586564196285 -4.867014098931117
14.69978880938384 -8.446735893499225 -4.783933969093949
14.686762615542985 -8.460120674755233 -4.722628929811863
14.673754222241897 -8.47373007536172 -4.661938039953402
14.662484031366656 -8.484348852419508 -4.610301509509009
14.647050370254178 -8.498650358347454 -4.543419820833238
14.632635384770861 -8.510184864712441 -4.485054288689092
14.616303575353744 -8.51724889928489 -4.427220570285174
14.584501027695438 -8.526991179927327 -4.329417859531686
14.537415228462162 -8.545015721361047 -4.2029996825406375
14.494561548415792 -8.560307148048883 -4.113011998020044
14.463248767688931 -8.584672255233182 -4.046717771380259
14.426423223413703 -8.60563260099381 -3.9775828151478527
14.398062019580284 -8.61878205399085 -3.926818467542199
14.35749646200627 -8.63852290513175 -3.851539996473003
14.31528052584125 -8.650789107903242 -3.7716438019173193
14.289389251427629 -8.65894324348754 -3.7164564118756322
14.267732661777135 -8.671081884213331 -3.657058800988879
14.248192792215328 -8.681478143041392 -3.5934145542312685
14.230135076334303 -8.688837506497528 -3.5250184087531133
14.214722982281653 -8.695083015513267 -3.4509276468216576
14.20704897994526 -8.69886137677559 -3.3973831195499917
14.201471085522169 -8.70358697511307 -3.34114957650546
14.197997825913223 -8.708544752382288 -3.2878689828562333
14.193833917740285 -8.71142134819571 -3.2207205534283245
14.187301915016302 -8.705906050406476 -3.1424364214652867
14.184230340536274 -8.702854095145831 -3.0820412451420864
14.183317638219243 -8.701775946451306 -3.0171157830147473
14.185105864587229 -8.705004680146223 -2.943558410766398
14.188261975032447 -8.710185852330843 -2.882564025945569
14.192242830491224 -8.712590461839909 -2.789784776628721
14.193533765368201 -8.700922802686568 -2.662711809925189
14.196290360289517 -8.696245311560803 -2.581991850794018
14.205258624090295 -8.696739185429038 -2.471197899295631
14.211098536140025 -8.700355849187025 -2.416790070893822
14.219233457951479 -8.70524435028535 -2.3458857092760574
14.231710102612709 -8.712352695468747 -2.244029179988171
14.242611227840811 -8.717050163815879 -2.155930807013156
14.253422846100047 -8.722032487844029 -2.0736733274304617
14.262856558030656 -8.725951364417892 -2.001751779730272
14.271374901160762 -8.728500636123842 -1.9323483864581728
14.280459405946004 -8.72594134972124 -1.861728219818122
14.289330553035253 -8.723438874484916 -1.7937372516243133
14.299221499497918 -8.720413044260702 -1.7204760543862732
14.30964952107373 -8.723073112642652 -1.6547441012765383
14.326455166142399 -8.737993754202261 -1.5753074030467968
14.345487160182763 -8.744787434784943 -1.4735378949579097
14.356455137146607 -8.743662957816417 -1.4087369637419735
14.365247314826302 -8.742861071827749 -1.3584165473071235
14.380513154636223 -8.74592064398118 -1.282450414563015
14.397860146214832 -8.748102190069716 -1.1991786642093296
14.417628482087995 -8.741570911195048 -1.0996148691155585
14.431981459978452 -8.736690646921232 -1.0327482609879812
14.446936473612382 -8.732533107811651 -0.967548227473229
14.463118817346864 -8.727921360225283 -0.9030619368019073
14.480317178975625 -8.726800055021483 -0.8422290480548975
14.497890846378521 -8.722577899685897 -0.7812555091233184
14.522877161515222 -8.711973328950886 -0.6983801149658881
14.545645086647333 -8.707924467738815 -0.6357178863296853
14.56664451362834 -8.707327321564172 -0.5789968188651002
14.585688748165264 -8.705976631857574 -0.532738517666024
14.607805044975915 -8.69966032528705 -0.47839316189433534
14.637344865930132 -8.688682888919432 -0.4089635652543322
14.66342219814161 -8.679198511395263 -0.3525295029560773
14.69517420218262 -8.66603465396289 -0.2860457278474384
14.727953778848228 -8.646577226298977 -0.21858550875599603
14.757461636300672 -8.62457075793544 -0.15645921603944446
14.798065463963258 -8.577082740506752 -0.06693697670439835
14.833274193783293 -8.562255814112218 -0.009181927974260429
14.86857838582075 -8.546833805822647 0.045173844456810386
14.89852272619321 -8.532726147409601 0.09012870484927227
14.924351077026618 -8.511460347994953 0.13261735407259279
14.968396872854484 -8.47613480085089 0.20254624943856125
15.022977484247875 -8.448849545949763 0.27266880992050035
15.068432064760913 -8.428361909898017 0.3266474340064671
15.12642168499531 -8.403208517314244 0.3916560923360679
15.165682756819855 -8.374219401900927 0.44091669115621057
15.207550694474076 -8.346725327015108 0.48944691264184037
15.258072694994556 -8.31402363574333 0.5464253375582411
15.302803888818215 -8.290753476026271 0.5924956641382906
15.343940179741477 -8.271278623351789 0.6306980950907786
15.392393035691118 -8.248753492201748 0.6763600547251714
15.452988337363458 -8.215951527694687 0.7350445682334459
15.515366638477264 -8.167025265955907 0.8013568278548524
15.545541571515354 -8.141593597770527 0.834335315238091
15.583604594372154 -8.108583859373518 0.8751947226670209
15.623317604818077 -8.08102890200314 0.9128011030098739
15.665714146257613 -8.065167655044771 0.9427559105409129
15.713157364190796 -8.048251449520064 0.9759268426980294
15.77648916565212 -8.017084545110494 1.0235434739427798
15.838288441328782 -8.00381443472218 1.060701723209612
15.893211218027123 -7.98878719891421 1.0928545052912035
15.960788429983342 -7.972570094353223 1.1309459625668987
16.029831376021264 -7.955121025439327 1.1693450584125333
16.07851814558309 -7.943224246294914 1.1957244517169618
16.142836524655575 -7.924161013596105 1.230947482481393
16.199921051563294 -7.913107113874595 1.2590982902977652
16.276451163169153 -7.908936789526479 1.2917685271000572
16.358075267303978 -7.913571811136718 1.3233007748205745
16.42983939649419 -7.894243886457607 1.3580788162347819
16.495275850565594 -7.879547601084603 1.3876119676188887
16.54650394390154 -7.87027704385596 1.4091037864461882
16.635801393927828 -7.848133374175463 1.447726819665303
16.707314029221553 -7.823896502956837 1.4796320354449861
16.768106805703287 -7.8205938977456295 1.502026233521045
16.844476426745246 -7.792543914056962 1.5356885852926299
16.90229289529362 -7.788680902659175 1.554127458750962
16.994917189262 -7.7764046080242455 1.5875957363580753
17.042476080459533 -7.765919046142944 1.6053182260682215
17.10331922766868 -7.749619990375605 1.6286693634436151
17.14983624599334 -7.70374291617239 1.65793475326398
17.22507663711795 -7.684783382114611 1.688251915763944
17.31078059307165 -7.668620508451168 1.7194806069219757
17.3881012811161 -7.639452356762149 1.752519844595728
17.477414640473224 -7.621677530868723 1.7835977456336236
17.540875941208483 -7.611551882113918 1.8046959454109173
17.608340450468503 -7.609607306205108 1.8226195163709233
17.67591902727528 -7.610858046310421 1.8395433904088963
17.735942825914993 -7.6119669357305355 1.8534980529850484
17.835191961318632 -7.612104257483331 1.8768951158756044
17.9184811644901 -7.610665579263516 1.8965132905668698
18.016972479916785 -7.58612866129798 1.9301440821385896
18.089934816841797 -7.574292150229972 1.9529187587866685
18.19201826388395 -7.551310370835857 1.9868824661556888
18.279262263084092 -7.537307162154741 2.012345367590995
18.34226930103468 -7.531655212629568 2.0286935905921624
18.41225465987344 -7.535431518998829 2.0415180025956063
18.46846049003958 -7.532734780861203 2.054262027453979
18.542363198387786 -7.520667166087307 2.0733193188118273
18.635807088338314 -7.549898548727581 2.077918818142174
18.711163230175803 -7.551529653135196 2.092248308115037
18.781333182730144 -7.543338276503903 2.110327210722864
18.900364014307787 -7.542500889304305 2.134407224911599
19.00286668319384 -7.576807649777518 2.1315075405103325
19.07848861447568 -7.5986511790047295 2.131619829305609
19.1981319412104 -7.628194228508606 2.136336418419501
19.263387921693102 -7.638944244646755 2.1437283788752595
19.321745523776894 -7.643176435270464 2.15329926818979
19.410008953281302 -7.6704021023759505 2.1550068952034653
19.48461057681504 -7.687171499713555 2.161940160171926
19.569352624143352 -7.705932476795859 2.169921260262515
19.637791605204878 -7.723948787656539 2.1746158894798464
19.706388121582307 -7.744010277846389 2.1779529005673153
19.753232297168235 -7.757507060013632 2.180045611872198
19.784978841726225 -7.765445760436998 2.182470827022935
19.85791075971331 -7.791663444333409 2.1830862133599096
19.950876032875186 -7.810537119695306 2.1927517486520953
20.012669054633076 -7.829724831423185 2.194795281334745
20.07917353423375 -7.849589641770805 2.1977188320354246
20.15456261956312 -7.875986862646888 2.197566434197727
20.234598011859536 -7.887372433737045 2.2058930331438926
20.29855989570954 -7.897180101263114 2.2117174752506283
20.42441526355087 -7.92865873751494 2.214614150293012
20.487879542082766 -7.943581306658258 2.216364196946296
20.558739413590377 -7.958408967429046 2.218728868394086
20.625443722691955 -7.972217553101817 2.219383270067384
20.691620564909453 -7.983173326609906 2.2211820962562383
20.756752967122544 -7.998985728554629 2.219153585973962
20.815513967002758 -8.013721155103054 2.216297705888339
20.87254650733211 -8.035696026100863 2.2092078033424265
20.946220600973053 -8.062340977217229 2.198971292450774
20.98164156425968 -8.077090838376893 2.1922907609624023
21.04555315917293 -8.10370514330919 2.1802365628715377
21.126488508513265 -8.134309454123787 2.1638333275083736
21.184372117438638 -8.156897485465029 2.1506375165384624
21.23378779755968 -8.17310829270696 2.139475745403324
21.29796288671641 -8.187107246405851 2.126628827876414
21.367102616926314 -8.199474384046903 2.1113205088788956
21.445220706318505 -8.204734412931954 2.0953289645640965
21.519213393805575 -8.205112408588468 2.079363015477223
21.608778684378358 -8.203670386856174 2.057435955893193
21.716788228475387 -8.218664587944428 2.0173301360405915
21.79800674655052 -8.236708969758984 1.97954854723279
21.865118715599465 -8.243225128211845 1.9500495209754662
21.94136075261627 -8.247330358674985 1.9149068547990709
22.008808538186877 -8.249627574214053 1.8827370904197904
22.08612022544999 -8.273559494831684 1.830793003613901
22.173344994260884 -8.267006605225149 1.7847807315113693
22.22394597007111 -8.270152607823817 1.7526543071226994
22.270161514662057 -8.27534799793881 1.7199070378258297
22.318241093165195 -8.273345563413512 1.6896617313537563
22.373199904267576 -8.270457033156378 1.6528320856949579
22.437249023952464 -8.271009234341115 1.6052577463583741
22.483108784727 -8.268911445993764 1.570519437085415
22.536880598235516 -8.2897553453636 1.518043304337497
22.579058285770056 -8.297487271112967 1.4791940117362836
22.629382757353717 -8.306664937621756 1.4311141695708418
22.665840351226556 -8.319441492962863 1.392603503128199
22.71935087058818 -8.326962787250338 1.3388927629996754
22.796983858344706 -8.334385612545727 1.2581058826006215
22.844820111866934 -8.339427098205807 1.2054134817729043
22.911243327824913 -8.342876813691802 1.1302841879294947
22.947109588137607 -8.336703673914382 1.089146718784595
22.988894911932405 -8.329125419011989 1.0396752701326397
23.041419759828898 -8.308702980487526 0.9715875821669369
23.06719212234028 -8.298966766499635 0.9354806862004295
23.111641442517843 -8.286233131950903 0.8649956228932303
23.15816222290052 -8.266475458268548 0.7806900905444949
23.18216704581617 -8.253492633470792 0.7320271260549207
23.20459062142523 -8.23959153661079 0.6822935211773142
23.2255724039669 -8.236250029672563 0.6267073794975659
23.259785258040996 -8.22514619537987 0.5261629701583681
23.289251641661508 -8.199661886752878 0.43625445600271595
23.30384157208195 -8.174693862513337 0.39152552616512004
23.322202742857574 -8.136148048618145 0.33521734707110884
23.340326333785605 -8.092941567051971 0.27561536183759827
23.356302860014036 -8.082566509062497 0.21952296085856648
23.36972209546733 -8.081695995329202 0.16445405869180618
23.386830013777402 -8.108853952720574 0.08189774076604639
23.415128937594123 -8.132485541324115 -0.047993515689820576
23.434487827451218 -8.13522707566864 -0.13249595451429474
23.452430457427855 -8.147973908175649 -0.21293630433620825
23.469221310838073 -8.143472382641683 -0.2796815256590439
23.49402111024997 -8.131228682994253 -0.38122472109262295
23.514363720476105 -8.126339716437535 -0.46722868116780525
23.534194057154227 -8.147338057061512 -0.5698709750890965
23.548194626703438 -8.165267860948804 -0.6451176539018961
23.567235397013935 -8.17990756949827 -0.7485437341412253
23.57707062490555 -8.18299151955925 -0.8014164328043618
23.590440188535915 -8.173320858621736 -0.8658947710279441
23.60401594207753 -8.17969623167032 -0.9439352466036302
23.61736002140741 -8.173919734757398 -1.0143736842502622
23.629608340613455 -8.162717700477664 -1.0726924826549338
23.645705315679965 -8.126245871337257 -1.1390208067913379
23.673894135953514 -8.051573680716409 -1.2387837258779593
23.690514855438433 -8.011931800119417 -1.3002211607959082
23.710474050574806 -7.953093915953607 -1.3635375102609428
23.722845876617754 -7.921038730929304 -1.401416319007614
23.738258195634018 -7.87917100296265 -1.4484709732243939
23.76515468064173 -7.825928880095917 -1.5467701099725493
23.785271206021434 -7.797616108765686 -1.6427578065518922
23.79679088660069 -7.797648217383665 -1.7146657658005418
23.808645592898078 -7.80311387235424 -1.7989850948586872
23.821912869992403 -7.789401285091026 -1.871166453415795
23.834869120175757 -7.777755908472924 -1.9439361819855303
23.842718079658162 -7.772325907430519 -1.993492275222195
23.853619312491144 -7.764646001640262 -2.0635501105791776
23.86576289373613 -7.756658780859901 -2.14149455108742
23.87666162382162 -7.749291279868027 -2.2134143897782286
23.88956413497719 -7.739331923005343 -2.303835862206962
23.903679415982364 -7.729397700527693 -2.4065093534929543
23.912172371815583 -7.732947993413802 -2.4985121190108295
23.91765755968774 -7.7332809739545745 -2.5565124327885407
23.924897122363358 -7.727235028203044 -2.611593026453464
23.931215860274513 -7.719924257337313 -2.669784765998707
23.938853478580075 -7.7103693185578415 -2.7290917763633056
23.94647004065805 -7.698589714898361 -2.794096288244125
23.961676310637284 -7.669421808978409 -2.9190527058704703
23.971909485361877 -7.647534103517533 -2.981566838351607
23.985254676090946 -7.611863563022409 -3.0512378864812497
23.992693742186887 -7.592557914052085 -3.1100077345703276
23.998675958716756 -7.576055467736694 -3.1660486960085183
24.0043626760693 -7.568363312755018 -3.252260936078089
24.007239286609025 -7.5645283782782045 -3.303495427275406
24.009678139791262 -7.556735348258448 -3.36060264875903
24.01268519425567 -7.546900886102536 -3.428257603270457
24.019595956855653 -7.522191792669606 -3.5401530380723605
24.02338454190903 -7.50347407679406 -3.602796859757418
24.025992105514693 -7.488858210805937 -3.6536376326490743
24.02899422319667 -7.469795054271321 -3.7233623665800666
24.030772209140498 -7.446038550372302 -3.804615108888669
24.031791646987955 -7.4248397380726345 -3.8650154439769757
24.032172634137446 -7.402432450534764 -3.930313968696937
24.03054195531413 -7.37554412142801 -4.020205463634681
24.024639376822762 -7.367004987880387 -4.115496970123312
24.018114587940286 -7.371174392860512 -4.191635187951253
24.009175545342064 -7.378253075693074 -4.280502955345046
24.001849621210937 -7.3808920477145765 -4.34776886846544
23.99227990055485 -7.385682630502675 -4.422982591180219
23.983172035962685 -7.389073091828003 -4.487636965086676
23.9735282382317 -7.391191297439585 -4.550783749954741
23.955501057600582 -7.387738683249918 -4.651368062598489
23.93975626993091 -7.3744363815200416 -4.727235508789091
23.91923301514311 -7.358909728188236 -4.810608293756208
23.893744921573123 -7.359919613922539 -4.904327081247158
23.870927121148437 -7.356876352515847 -4.979081055234937
23.843143996021844 -7.355418255692822 -5.059688659351514
23.81872195638696 -7.353313064364501 -5.124985124044569
23.795053948029754 -7.353444271947399 -5.1854129785209455
23.76627163660878 -7.359608594333151 -5.2551069728798305
23.73462761676556 -7.3805085712845635 -5.33066147073713
23.692170022263394 -7.3911580350243415 -5.414001207200696
23.66059892711756 -7.381687745160486 -5.470375203111439
23.62666375868705 -7.374169286405989 -5.525907229723001
23.592942885141298 -7.373147094430289 -5.5740503443194305
23.55795534057039 -7.3692362915157315 -5.621417388852266
23.499938135980557 -7.370263429250805 -5.694023067839581
23.4496484848726 -7.37690496993546 -5.751942871278106
23.411548287817375 -7.378395520337435 -5.791291980141192
23.350728156090746 -7.3787600192615646 -5.848029762176319
23.28986990603038 -7.380682150983144 -5.901476378721449
23.247502891448605 -7.384870495619845 -5.93687773590487
23.210397011624956 -7.388965955893344 -5.965994252064508
23.101134523908808 -7.415099858414052 -6.051997041997436
23.050860108925043 -7.4232898442484085 -6.08642932055783
22.984800714500622 -7.434996157587699 -6.13138572154765
22.913798331019024 -7.453540574922526 -6.178965528575329
22.867396730596816 -7.476497381800845 -6.213153730043434
22.82425741265261 -7.50009228501553 -6.2445960690848725
22.775961409934542 -7.504395864383502 -6.269393974798523
22.726523731550458 -7.507612012630348 -6.294079115581308
22.678166622437633 -7.5072894996282 -6.3159727314197
22.623524117973723 -7.506317473481859 -6.339601083856404
22.56661786300113 -7.502992482749718 -6.362300859026559
22.491311884009136 -7.496642227664196 -6.3903587483418445
22.414809009134625 -7.508602497510518 -6.42363105284645
22.350056317022332 -7.515562463581624 -6.449463018124689
22.27790219341785 -7.521845698158151 -6.476804736446306
22.225049209906448 -7.5250168853058685 -6.495893825975239
22.16020014057359 -7.525851588631092 -6.51729093994878
22.09438027552159 -7.527077181827666 -6.539145258700471
22.02346513691696 -7.529080279678983 -6.561994809979483
21.961015048610665 -7.530847184811833 -6.58180893745633
21.89426001950872 -7.53986046970528 -6.604330363541573
21.83386546641174 -7.551756279090052 -6.626206802667076
21.76058216458506 -7.562211527875643 -6.650102379451592
21.692108006763352 -7.572827491619293 -6.672637473480172
21.63312089199881 -7.58237143746509 -6.691718616155936
21.549920274197376 -7.599878289775052 -6.719787036003755
21.49274939822452 -7.614103478419798 -6.739624633135378
21.410941267021872 -7.631317506243988 -6.766431729655663
21.306130262049365 -7.651480509965026 -6.799508919035359
21.23816188480054 -7.664557310088805 -6.820721760310947
21.174666742201566 -7.676379557282427 -6.839209779745191
21.10325868406136 -7.693219099897339 -6.862826275095973
21.036338306538845 -7.709989894891553 -6.884219698777215
20.967947707536567 -7.726319422699108 -6.906687483036679
20.91519015930197 -7.736460605684552 -6.922379360780777
20.8612376511506 -7.7450644407854305 -6.937432866214889
20.796210871998046 -7.755011036325705 -6.95540677254262
20.732210939604553 -7.764805855501377 -6.973093061333469
20.669096601369457 -7.774748062400354 -6.990455058142982
20.58517454503057 -7.788106318861864 -7.0131864165373115
20.51735740379953 -7.797336600986267 -7.0297501416030075
20.431664118765386 -7.809148329180594 -7.053850367967845
20.359439353477672 -7.824641302180446 -7.073366271135597
20.290900791501226 -7.838518872881863 -7.090813095929472
20.22213351729779 -7.851629890961592 -7.107873786141827
20.154016844193187 -7.865578182385907 -7.1239903451420075
20.085956153434108 -7.882659837457615 -7.1404651157000805
20.003182490977114 -7.9013572774151974 -7.159216740753769
19.93511653744429 -7.908481833669088 -7.171679496368405
19.850750592474455 -7.918192359072373 -7.186069878170141
19.749689378118195 -7.923252744321477 -7.200960248022463
19.68110649239424 -7.928305967123631 -7.211243217359818
19.60480136950217 -7.941465760540227 -7.224616776311415
19.546546594291687 -7.9553101161674284 -7.2355900718313775
19.480220479318135 -7.97175556077355 -7.2480740649899085
19.394715076867687 -7.995479641398209 -7.264314466289658
19.307011119995924 -8.028564780968672 -7.283022326584708
19.2406611296274 -8.051218411637116 -7.296300933220063
19.177170262559798 -8.068678670504024 -7.307404151034714
19.112236680378352 -8.087575820062197 -7.319359733454365
19.046312679793616 -8.11052856374397 -7.3319911212752436
18.994358192809262 -8.128489847181443 -7.341421996135185
18.93795955776554 -8.143956002810897 -7.351287780766002
18.844611160302456 -8.16992143708724 -7.367503942151009
18.75294661066193 -8.172835366957964 -7.378129295285096
18.673497383614347 -8.177635029912746 -7.388782322657064
18.583042495399663 -8.178610068256585 -7.400573253612035
18.486405188199363 -8.1696561654372 -7.410853986637103
18.396966455088055 -8.16223912523577 -7.42265948281308
18.287807910435813 -8.156909192822443 -7.439268803547743
18.218749224595474 -8.154127533746017 -7.451105113293492
18.13411062780741 -8.152124253833238 -7.466399728876116
18.083932426104813 -8.150878933399538 -7.475263832692903
18.004821835858294 -8.14987463140292 -7.490278582719689
17.936150566963516 -8.163848547345818 -7.506633683034665
17.88804521163492 -8.17363693487912 -7.51776568296581
17.81448713370387 -8.18331511536078 -7.535493197112332
17.74437429069141 -8.17566178021424 -7.54825443182507
17.675120096034128 -8.168374223325017 -7.56080293547991
17.61218458347198 -8.177287683587153 -7.57492605628339
17.533356179897275 -8.191199247826638 -7.5915907753461545
17.443650888117837 -8.209455248353024 -7.6093478917133766
17.380091734702642 -8.218790451686738 -7.620649546395332
17.325723378943398 -8.23079510542083 -7.63027874918128
17.23532175151565 -8.22615306805706 -7.642031346547252
17.17253002143884 -8.23647945902657 -7.651599207679622
17.08864671670102 -8.209907644478033 -7.660093152629887
17.012065950396398 -8.17196714151326 -7.66606446282345
16.922285290333974 -8.17517019129678 -7.670489626814067
16.870658045052178 -8.170946611786162 -7.6714146450922085
16.806533819558933 -8.145489036188991 -7.6709415086982125
16.69251414630365 -8.137481034947252 -7.664569056192313
16.64807133516375 -8.160622410197014 -7.658722802900703
16.57472321302482 -8.18095793702275 -7.648770998276518
16.525671062017253 -8.192923940698877 -7.640771394195723
16.45809428393565 -8.21954825085272 -7.624658941572902
16.404322718020254 -8.238688163408456 -7.608162715322801
16.30361271441856 -8.274979889679676 -7.561440750452871
16.2592576628971 -8.296739987947237 -7.532909871381153
16.214034739811222 -8.323984140177672 -7.498473625572352
16.166973942804074 -8.339698478552414 -7.45801978919363
16.11428169492902 -8.35522143276909 -7.408015952037794
16.05395056029182 -8.37392136316169 -7.344662369381612
16.008919367263708 -8.386885067002519 -7.293780660171918
