337
-18.986491210807667 -15.049976564985942 -4.390929783638934
-18.97032345223002 -15.118256890623583 -4.450632705379542
-18.96207859425321 -15.168801472618176 -4.496550735888517
-18.957745835760242 -15.21912700833492 -4.543149647602989
-18.951144776126643 -15.281523679664458 -4.608871868714053
-18.946162558139854 -15.341705917914867 -4.6788476872864635
-18.94388708182562 -15.390414867314911 -4.739056299622251
-18.93757352052243 -15.424519343694785 -4.792498691757859
-18.940311449540275 -15.465431381559656 -4.845222340983626
-18.941971294000666 -15.4995749958538 -4.89360889641508
-18.94796605162252 -15.533484443957098 -4.936142862084314
-18.955597900238597 -15.570633761662949 -4.984483053891762
-18.95717229466344 -15.60770373643002 -5.048983476956384
-18.96052489540894 -15.641758165124392 -5.107637352520663
-18.966624311279592 -15.692817981994073 -5.200806748752284
-18.977148842468363 -15.74998203659211 -5.30265439663171
-18.982261167767394 -15.788287856671337 -5.380297793616047
-18.982020222200145 -15.823892934463155 -5.4693823571962605
-19.001127887890437 -15.879639588461073 -5.555836595548489
-19.01112654767706 -15.907293233876649 -5.598960086931269
-19.041101187204507 -15.971680224015826 -5.690510774583933
-19.05186521485408 -16.015256346286495 -5.800906700020723
-19.051677478794137 -16.035013051752486 -5.882371385627339
-19.068890265007852 -16.071844231529898 -5.973147862468478
-19.08524844603513 -16.100488288066042 -6.040753063747438
-19.105809614440663 -16.13303400257417 -6.12356097404727
-19.137680460782875 -16.175624352862954 -6.227826587979609
-19.16044316269773 -16.2020942344307 -6.290553044654113
-19.190918209397744 -16.234907401471077 -6.340602998084772
-19.251176706739102 -16.295156708429758 -6.418708995111087
-19.291541188192156 -16.333562818795393 -6.465195594416698
-19.336498579795325 -16.374800571302337 -6.5127298035658825
-19.380494997031402 -16.414010471744994 -6.559185232859838
-19.43268937011067 -16.461216878644926 -6.594276829323563
-19.512820680464166 -16.532729115457986 -6.613176589055808
-19.578084135536066 -16.583870372765748 -6.671692955366842
-19.630162861891616 -16.60871409772215 -6.770980240351234
-19.685485630166653 -16.63200677985289 -6.859768089596446
-19.722294193875495 -16.647074785225247 -6.904740565714335
-19.765678560242044 -16.661410676298683 -6.957199201429235
-19.80786154578535 -16.671984230414754 -7.007756900809274
-19.855382760578642 -16.68259390805588 -7.060364264799301
-19.900870664117196 -16.689417838112984 -7.110721313840941
-19.959588965276232 -16.69023911397464 -7.179826663438206
-20.034713044306265 -16.703542833518807 -7.24172249552905
-20.082755235257636 -16.710129755484715 -7.279239489256814
-20.129982820007367 -16.70767244456466 -7.325103550063408
-20.17869893614237 -16.705271912877446 -7.369072016394319
-20.227682095249616 -16.70159232074976 -7.411826122465467
-20.291174570854768 -16.696879165878286 -7.463732760249347
-20.34347570938054 -16.689928046474613 -7.506524578985279
-20.401529106114157 -16.689382349294142 -7.544511163870733
-20.45836792801618 -16.693028911142573 -7.57660592572962
-20.539625082768517 -16.69328448889633 -7.624356184564987
-20.59424483943257 -16.67833212418833 -7.670765947525828
-20.632765583877354 -16.65484711657043 -7.712684477563455
-20.709685418669384 -16.619567137202502 -7.781617751865584
-20.772198690063902 -16.60910963523918 -7.818004794300165
-20.819233868636154 -16.60370898559144 -7.8410597826810875
-20.89435591716211 -16.581784714404428 -7.88073819084672
-20.948790019604584 -16.567727811531746 -7.905207411294468
-21.022491113981737 -16.55571063907562 -7.928513823991474
-21.085699167593496 -16.547718849024225 -7.943803480290349
-21.152455641817586 -16.54045928964012 -7.956882103681709
-21.227257004104974 -16.519954267882014 -7.976678603270616
-21.281211226716955 -16.51364137989766 -7.984959731013038
-21.345764295433963 -16.508092017343515 -7.992066658919688
-21.403057378510166 -16.50871956295622 -7.9948658021820975
-21.471522221390984 -16.497732144193296 -8.00482513086916
-21.52942060402137 -16.481122991437026 -8.015399474994798
-21.596135251414328 -16.465022578361783 -8.02643543557048
-21.678911213251403 -16.43783733056224 -8.042149078314598
-21.766506622945368 -16.410788639090317 -8.056325917355705
-21.86022984179405 -16.398670254755242 -8.061631328328678
-21.917346967044644 -16.382817177351804 -8.069267304047042
-21.972520461352428 -16.3608853398987 -8.07900305896626
-22.043558427511247 -16.348211128270584 -8.083855552305367
-22.116366279167128 -16.34017782097663 -8.08552104584
-22.22041121479313 -16.335861592137405 -8.083119636109155
-22.338899936925895 -16.30733798571798 -8.092373680731766
-22.39506635409196 -16.29984924352968 -8.092248039018138
-22.471741000741495 -16.301749658169726 -8.086785473287689
-22.522203284481613 -16.299050949847846 -8.084601192011492
-22.59048040963812 -16.293128624083852 -8.082896502497483
-22.69449163491905 -16.277775782907256 -8.083293417066399
-22.80675128542647 -16.268419465310938 -8.079926255184972
-22.903319984352024 -16.27848960571573 -8.063806856092619
-22.99815602430476 -16.27466642602328 -8.055936398306587
-23.069904310542714 -16.241564498428573 -8.070028279964506
-23.11511453155564 -16.215010675009868 -8.082260462708946
-23.204210922926155 -16.19502835422405 -8.085570163802485
-23.285757605045024 -16.191830979695336 -8.078735020018852
-23.364053361533294 -16.169458400465526 -8.084078204441864
-23.412383205750398 -16.154887691505486 -8.088432734984835
-23.484009196887097 -16.1330665950936 -8.094552056038424
-23.565392961931487 -16.110569056498328 -8.100056814507031
-23.621890130645987 -16.08689250139761 -8.109766151738315
-23.690547142431562 -16.051000103307892 -8.126617728157049
-23.75178183191283 -16.024184967323 -8.138399836004766
-23.829568860444677 -15.993077465642132 -8.150997721628508
-23.892300867105895 -15.971690308487391 -8.159188028795269
-23.945221902566807 -15.956575188794575 -8.163436369855063
-23.995803115973462 -15.944013317704675 -8.166658017961609
-24.07910434172501 -15.924673242863458 -8.170939339590158
-24.188588023488713 -15.901123961178827 -8.174888427137326
-24.265994452150554 -15.895545509108294 -8.169767414921617
-24.346356990015526 -15.907882356663942 -8.149563495225038
-24.432923569920305 -15.954161067289307 -8.12922449633972
-24.501195991216335 -15.999664810391414 -8.139980486895693
-24.549209839652903 -16.01693005003173 -8.148586286336606
-24.590298889197662 -16.028150482834892 -8.11657142394443
-24.64435097885149 -16.034612634461904 -8.1241023328334
-24.738408084865526 -16.0310122121223 -8.098898610593467
-24.78834556549683 -16.02174983868869 -8.077939670698806
-24.851133241204774 -16.011300540565244 -8.063314813333859
-24.930459209414465 -15.976561225949235 -8.058217230411762
-24.992530705623196 -15.949451758475847 -8.05826988355561
-25.064655071027964 -15.913317822384625 -8.055723544514867
-25.13793399566316 -15.880231157506435 -8.052608877820179
-25.199019531671148 -15.852928905226962 -8.052526225759902
-25.26256011485582 -15.816332598108906 -8.056781138517545
-25.318632319939283 -15.770625199889976 -8.067377324022255
-25.376251611709414 -15.700057172071338 -8.08735405136596
-25.41538176331086 -15.65561630324884 -8.101389031405633
-25.467779230109493 -15.604112280303658 -8.118982379241192
-25.516960461752966 -15.574846334844468 -8.12684714541817
-25.61622072036597 -15.564065055735318 -8.120410555614862
-25.676728631005275 -15.547215885636097 -8.116895459418387
-25.735316509893195 -15.531491892063384 -8.110664274260905
-25.81182182997827 -15.505538315716523 -8.100919269385379
-25.878394604227026 -15.478181573976743 -8.09270458479427
-25.9325811298841 -15.457123812997677 -8.085290468637437
-26.013046337512407 -15.430018992133613 -8.07324577510495
-26.10114856779708 -15.400703096324326 -8.060473638555695
-26.17843914582942 -15.384509114853108 -8.045102459608424
-26.264457307516828 -15.363007610287541 -8.027469286330653
-26.344212638576593 -15.33844725343022 -8.011754453272708
-26.423102507023376 -15.316992691296667 -7.99222339146703
-26.51716391140756 -15.3027488580413 -7.959230722179739
-26.583095084522167 -15.29120712826837 -7.933940937307376
-26.65048512682147 -15.287477426991872 -7.900700968041667
-26.7143961921209 -15.284047902071551 -7.865557704547381
-26.78905112740819 -15.277673691350502 -7.822228967910698
-26.849713330364214 -15.267496269195169 -7.785522831385899
-26.923032662923298 -15.252797445096649 -7.738414166992624
-26.97356852789893 -15.240507157439678 -7.706927222762431
-27.030269653635532 -15.22861984594899 -7.670512497392227
-27.07461682026701 -15.222017424578583 -7.640351152754885
-27.12757071321946 -15.213076057200583 -7.6046686671348915
-27.181330460821982 -15.202761010931484 -7.568641051535184
-27.236323938661677 -15.193882091307524 -7.530425911277565
-27.29114682290953 -15.186170019027303 -7.490284950231895
-27.35379115500703 -15.179402234256335 -7.442219736037863
-27.419533284476767 -15.176483698606363 -7.38752876978343
-27.48981779365387 -15.172599355583385 -7.327109357805607
-27.547123661683553 -15.173484930623259 -7.272695199215719
-27.594607321887285 -15.168969280608968 -7.229554084995315
-27.64966249386583 -15.167270438322356 -7.173788512386696
-27.695417586141673 -15.16924577608563 -7.123343354878531
-27.75313791783942 -15.161317235956 -7.063390665892422
-27.792618685313194 -15.159842594201448 -7.01587384424982
-27.83816800837042 -15.158964035682802 -6.956864365780948
-27.876916665864954 -15.154340037491222 -6.904806981772795
-27.927983863406762 -15.14437548239176 -6.832252606878307
-27.96523336012592 -15.134859415452878 -6.773498368566551
-27.997279008781188 -15.1293321870252 -6.711773015274162
-28.022780463472795 -15.121846567710124 -6.655833883963423
-28.051224829319676 -15.108631421789122 -6.59243852233506
-28.08442242735602 -15.083851610983414 -6.5152231656507835
-28.110637880984033 -15.060000508606581 -6.450065781985119
-28.135579478896346 -15.041178211986887 -6.366519036381269
-28.152533365204693 -15.024834749401176 -6.304687374450619
-28.16836699054923 -15.004770046786028 -6.2409475274414925
-28.183919470021607 -14.986506832282727 -6.176516141511005
-28.19723764004301 -14.965819734857599 -6.110297303264651
-28.209244450912124 -14.944640317500578 -6.044527774028515
-28.218946184725727 -14.924361359052407 -5.9771890141071315
-28.22647260833693 -14.905906001825446 -5.908749494293444
-28.232711183910858 -14.884688738836862 -5.841131865155513
-28.237288413759817 -14.863659661911019 -5.773437547759225
-28.239599478772266 -14.84314845898223 -5.705748698874264
-28.240428610565058 -14.821939328699768 -5.638671499471056
-28.24008557526315 -14.797654274198743 -5.5734963392646435
-28.23879663261593 -14.766715174822792 -5.499727915602502
-28.23715147553238 -14.740171830470512 -5.448863237092413
-28.23500612902583 -14.705153696842373 -5.389887298475145
-28.230375542981474 -14.681304324276613 -5.342914686356964
-28.221179154376518 -14.651954666384432 -5.279815503506107
-28.213112788257764 -14.613519159360091 -5.222837169315548
-28.203565291071882 -14.573300258573033 -5.168197542035914
-28.19175155348003 -14.537715601081258 -5.118834148875261
-28.173172902105218 -14.486018044798033 -5.054230493434229
-28.158934627659974 -14.435586030398017 -5.008087521105255
-28.14528338689974 -14.387615362162276 -4.9675259979349375
-28.127259903759356 -14.339025668773006 -4.925473088345173
-28.107646435490565 -14.295520175375312 -4.885382343935338
-28.088977255912457 -14.258122354449311 -4.85121313653068
-28.06231226844149 -14.202876752562084 -4.8059770187440405
-28.035708746008623 -14.156040376003059 -4.765990950565148
-28.008879683459753 -14.11428170415185 -4.728686384749364
-27.982821389613534 -14.078227046955188 -4.695274308810766
-27.947577174674038 -14.024165270616118 -4.653043832799569
-27.917335777160602 -13.974603758580288 -4.618429747791669
-27.884201194405804 -13.92145916310539 -4.583832764984611
-27.851297764404027 -13.86947422284288 -4.551767274545779
-27.81632749997936 -13.817575510236853 -4.519543370807966
-27.779207497001195 -13.767439277200458 -4.487632327715604
-27.717688558249172 -13.697542701831132 -4.437397455370939
-27.664080838489625 -13.632156463822282 -4.3975174569120385
-27.62871423385566 -13.594695528468927 -4.372708606280617
-27.584680159655058 -13.549344749698088 -4.343015842226107
-27.52402867334566 -13.487924926812026 -4.305538379181313
-27.460930243240885 -13.422279419034242 -4.270999650871863
-27.421412320954214 -13.389591688772443 -4.248454853258498
-27.37137877685638 -13.347286066735228 -4.222559139455274
-27.311564145107845 -13.297270172185538 -4.192946039598364
-27.27309824072026 -13.26754859876574 -4.174432032690386
-27.22091403686095 -13.233448480691838 -4.148622457170757
-27.17309615869032 -13.20131304904705 -4.12620974924925
-27.109703896832794 -13.156972147208535 -4.098022316807924
-27.027109824241595 -13.123847080039384 -4.0580723428487
-26.96084548537774 -13.105052846192635 -4.025411056010548
-26.901797661674916 -13.085937641970467 -3.9982137777036533
-26.826958111148443 -13.071961539851575 -3.962581759837378
-26.74994292969281 -13.058684555056047 -3.927679314572221
-26.645921516496767 -13.037655533494231 -3.8845124721143716
-26.554834197431415 -13.0298763239083 -3.846293778406486
-26.466237444411448 -13.030123476764045 -3.80942081528479
-26.3714530413567 -13.03128670409289 -3.772140995799319
-26.31182024741758 -13.027747122458972 -3.7510443881680153
-26.262039755142712 -13.02523090354922 -3.733939756215607
-26.17417014026561 -13.033609112499029 -3.702068915435847
-26.11108742337804 -13.022664403294193 -3.684795968633348
-26.024595642789027 -13.009875768831593 -3.6620935691295697
-25.964784796358174 -12.997382537662075 -3.6485575297603523
-25.857213300137918 -12.993524951002142 -3.6209829313401993
-25.771471678879912 -12.979886887655116 -3.60343901987459
-25.65997994962635 -12.966489152106249 -3.581560158254745
-25.569751961962414 -12.96826938979425 -3.562793099822647
-25.436468105140484 -12.970699622807317 -3.540202761876042
-25.336665482419978 -12.95889270802708 -3.53004531977618
-25.23223666474084 -12.980185420153072 -3.5119550768986434
-25.166583165822505 -13.000783709856256 -3.498717437925235
-25.10494102914816 -13.010939415991832 -3.4910416374851216
-25.026026002976547 -13.028056568869182 -3.480422812002452
-24.962172926889757 -13.047900322954911 -3.4709090265388767
-24.896424405104582 -13.081466784942998 -3.457289788612833
-24.85181297420211 -13.10458166970026 -3.4493694728784137
-24.78999352891564 -13.115688441280922 -3.443669763211603
-24.71240075832697 -13.13138704340504 -3.4361639277923492
-24.658841683701016 -13.149241661665464 -3.430341732660043
-24.58092512019026 -13.17229032591317 -3.422251129674243
-24.52507149277291 -13.185204175383738 -3.4177819174588144
-24.406001629829966 -13.213100569456973 -3.408993888132666
-24.29942530595605 -13.224421253999658 -3.4056216401012707
-24.253012252328407 -13.242541009039414 -3.400922091137903
-24.199783179146504 -13.262215791228716 -3.395807726180535
-24.098622297287033 -13.27206402082589 -3.39452458638201
-23.980981448051907 -13.305592911659119 -3.3870439861211086
-23.918746931153514 -13.321608131815475 -3.383749311979872
-23.833650885778184 -13.344354218949864 -3.3812453920190775
-23.7848224571081 -13.355232221219092 -3.3775748470872893
-23.710797065274182 -13.371468568241104 -3.374308499539101
-23.653790302875024 -13.38066147976976 -3.375356360562485
-23.60029026851945 -13.375230292699033 -3.3781383204991036
-23.525827023212234 -13.365027880255004 -3.384719882430187
-23.4620800357586 -13.36015183440089 -3.3884200134106806
-23.384932859571254 -13.350563818861511 -3.3947376090893124
-23.288152991860052 -13.340423397024523 -3.4021025592185925
-23.217925398404418 -13.340504829913087 -3.404874042631917
-23.16178793131207 -13.3416563160831 -3.4071152075716666
-23.10257676566647 -13.34767963151585 -3.4085589377526064
-23.034334401565076 -13.362835988247461 -3.4061210721263535
-22.942656181154977 -13.363715127000717 -3.4111376960530055
-22.870987772935827 -13.369279188491795 -3.4120479482516686
-22.789332087218067 -13.398573829699519 -3.4068129645314187
-22.71343499418463 -13.421736887980046 -3.402530690152229
-22.637231153036666 -13.446388165115893 -3.397555098730006
-22.555082303234247 -13.459570758774282 -3.395976498129741
-22.474738925215654 -13.490181856456836 -3.3891129771447073
-22.40996905230239 -13.483922441568426 -3.392056122667765
-22.347802730880446 -13.479808940170892 -3.3943330364714406
-22.238044754665047 -13.475896749625635 -3.3956782549538485
-22.161612610259446 -13.463996188208844 -3.3985510084185586
-22.08616543295755 -13.480843564765566 -3.391220872424725
-22.00015519342585 -13.467237066158809 -3.392278127813401
-21.91325682752074 -13.441533243672382 -3.3977675596248167
-21.83749522268168 -13.463209906699223 -3.3865253605234624
-21.775975965509787 -13.475942370295112 -3.3785734243653476
-21.69591965317956 -13.481775719762707 -3.3720135866570935
-21.636342190194807 -13.487238918710068 -3.3663966053877328
-21.561005094170426 -13.502068061320118 -3.35673357062199
-21.50875066559042 -13.511012387865431 -3.3505110627832506
-21.43073243849859 -13.517745152205414 -3.3440699826852027
-21.35496516578888 -13.52826721774695 -3.33707369618259
-21.30630031295662 -13.542058187836258 -3.3305200733176648
-21.24313963391426 -13.555951021140821 -3.3245921290357217
-21.184798811638018 -13.563368392658454 -3.3214849759918366
-21.127961841206965 -13.570763632972264 -3.3204257353319013
-21.060546490317048 -13.587387630007282 -3.317386895795183
-21.001054591383078 -13.602399437222779 -3.3162673104441964
-20.94994965832236 -13.609726951078098 -3.3190970516074927
-20.87885539313161 -13.635153129284316 -3.319414646178677
-20.82252983508487 -13.658732640972817 -3.321245730946332
-20.76616160510744 -13.683171101852379 -3.3244836490266625
-20.708552729182564 -13.702984501582819 -3.3316233714155885
-20.650068574434396 -13.722119981483965 -3.3422754431282344
-20.59118962810218 -13.74163381458417 -3.354867506490095
-20.528299169229776 -13.767081895093586 -3.3701863373194305
-20.482624574569755 -13.789872081014193 -3.3816381448974893
-20.403692380201925 -13.82637865177459 -3.4063749994994827
-20.327241171787982 -13.869520150526986 -3.4306267252627602
-20.24977249613068 -13.898713328424416 -3.4623585321925567
-20.190674817752807 -13.92091819595197 -3.487912151875104
-20.114182515786606 -13.949168792502054 -3.5231424984871227
-20.050398192885012 -13.977490057798777 -3.5532101605292725
-19.969045392913713 -14.02323849746885 -3.59189117329922
-19.89858684549899 -14.073694459059864 -3.6259067788074244
-19.83478375731969 -14.123596415338032 -3.6580526994346165
-19.74903592576595 -14.174269498372594 -3.705549903614884
-19.70292046865632 -14.206455036040007 -3.731676006711746
-19.60846602857508 -14.286432012253693 -3.7873798457478545
-19.55906286853329 -14.331906378273107 -3.8181328100400638
-19.5101852614501 -14.376147784170152 -3.8502113291710485
-19.448275494283198 -14.430524111813176 -3.8929512007477793
-19.387329880015972 -14.49592103873332 -3.9365664630863177
-19.34414157287375 -14.540834553677708 -3.9693763198785073
-19.303265518881176 -14.58560751534969 -4.002634480852152
-19.262278100585775 -14.62796959605326 -4.03674106056273
-19.224607147356398 -14.67144253945713 -4.070536832611036
-19.188919741809602 -14.714437767514442 -4.104163414667248
-19.15493092154862 -14.755729903183406 -4.13833450836639
-19.123275403565884 -14.796696318339315 -4.172174856443627
-19.094064605351644 -14.836437129177773 -4.2060770513157335
-19.066439225807805 -14.874773066221557 -4.2400539160342845
-19.04169344901473 -14.917720722516487 -4.2764650490221605
-19.002739466960502 -14.999996562211296 -4.348262465741108
