457
0.06795355614605159 -17.289526728800652 -14.136233356955897
0.00906457731892596 -17.288090737736614 -14.191890797819864
-0.04297268658907871 -17.28749792483486 -14.237208084074512
-0.0955391271110484 -17.285985734533444 -14.280727682455703
-0.1480428295009415 -17.282573416197657 -14.32334841494208
-0.201219550897775 -17.279414256138118 -14.364085259115376
-0.2560941476327887 -17.27665087653091 -14.402311895481342
-0.3111860277723042 -17.27288317510008 -14.439357464896746
-0.3671527691831953 -17.268193064507763 -14.475040357409803
-0.42343127941885594 -17.263143322485494 -14.50838861865248
-0.48344265287799537 -17.260205937200222 -14.539810486448145
-0.5431811155093746 -17.258422604275243 -14.567839353656872
-0.6206590260214941 -17.25189520902201 -14.60464976918774
-0.6858001691389837 -17.248759219965812 -14.62985917136839
-0.7488604422850651 -17.245861338216688 -14.652270646865448
-0.8214242343749727 -17.24269477110845 -14.675897088828263
-0.8865951785429691 -17.23868764538225 -14.695733698107086
-0.9349937898474399 -17.235242751361742 -14.709249509103332
-1.0221411644356149 -17.234462071196088 -14.727674087235918
-1.091891923335318 -17.233234018321497 -14.740336231792426
-1.1892653597730343 -17.227333175269184 -14.758027540666697
-1.273871727265389 -17.209977918998202 -14.777850989364833
-1.3378185962328688 -17.1918510547929 -14.795586184098928
-1.40277869215765 -17.170367619580762 -14.813207547161058
-1.4620410452859307 -17.14888887396091 -14.829335315514577
-1.511156599534008 -17.129353383747073 -14.84309836886923
-1.5686307809389746 -17.10259016124466 -14.860565871548012
-1.6692555080427187 -17.0562294741746 -14.888345698340933
-1.756744554465044 -17.006914608445452 -14.916054539029028
-1.8162696615166194 -16.98193883306808 -14.927673677757342
-1.8899067114396706 -16.95205339802533 -14.94105215286985
-1.991275722707373 -16.916775280554184 -14.953687789420758
-2.0393862281624866 -16.8906283177057 -14.964450926547043
-2.0999275245616325 -16.851021452212763 -14.980861478789267
-2.154615654087042 -16.81744795382266 -14.99372231215773
-2.2118462973816104 -16.787313802588898 -15.003278702911677
-2.2687107590650832 -16.75733813245346 -15.011957683753147
-2.3274100341533126 -16.726755233527353 -15.01919804555669
-2.3862329167287655 -16.69826715112025 -15.024996132991804
-2.4433965007203575 -16.669919807281747 -15.02985706410689
-2.5043484679524504 -16.635293658892234 -15.03658620468743
-2.5615318848873123 -16.601814708835636 -15.042043397657102
-2.623017928803078 -16.56760619137044 -15.046838008149711
-2.6918503775058564 -16.530410373094224 -15.049821667670068
-2.7460402001118194 -16.50576338258323 -15.048804208146645
-2.8092291998439824 -16.477307253852455 -15.045934354218222
-2.8721235641997716 -16.449037160061916 -15.043009159289289
-2.9347642789685384 -16.41765820426222 -15.040006638283662
-3.018132190102161 -16.373739375263618 -15.035343586876424
-3.106422285198649 -16.32863160357925 -15.027831216594866
-3.1676277551368166 -16.304128622259665 -15.01791304050615
-3.2342796971021937 -16.27767896506235 -15.00523471447554
-3.299053633764327 -16.25160045387478 -14.992519218294548
-3.3645025499634595 -16.224388326920316 -14.978401124336909
-3.430379125386353 -16.194340545936356 -14.964214309671034
-3.4945097864597585 -16.163892548473115 -14.94967531310249
-3.5597290883102257 -16.1336826853374 -14.933218181086453
-3.6248413920213336 -16.10254480539363 -14.915676676077393
-3.6904675435898646 -16.072836445222755 -14.896064920085928
-3.7345146335251798 -16.054103725305627 -14.881435031668625
-3.7785593204010732 -16.035272763023176 -14.86610650560466
-3.8225383804749207 -16.016109710026406 -14.850367905427097
-3.8663832513036454 -15.996438635147763 -14.834107359939507
-3.9102445188063193 -15.97660639972682 -14.817439278397936
-3.954090597214604 -15.956882985505539 -14.799786477044288
-3.9974846050065924 -15.93668657733321 -14.782159720534063
-4.06487902501655 -15.90461254042547 -14.753563228264856
-4.116105104804333 -15.880577408313117 -14.730604786936459
-4.1657919835643655 -15.858024198970648 -14.707559943850567
-4.215449397021315 -15.834267235928598 -14.683596838773015
-4.265738900936677 -15.809008452722955 -14.660112868691211
-4.336642586548316 -15.770952653811102 -14.62689154375898
-4.424154008587886 -15.728821787986343 -14.581334089580016
-4.476663473030981 -15.699403350653052 -14.555327516257675
-4.528903937105686 -15.67146366389285 -14.52821260663742
-4.581042156314347 -15.640716852595402 -14.501635285229911
-4.644090946486751 -15.603030806577358 -14.469206078828357
-4.6864753349952615 -15.579693106805369 -14.445609595817023
-4.739882546653089 -15.550990102671905 -14.415288102169553
-4.793469746745343 -15.522406481407307 -14.384143432414016
-4.847158142066555 -15.491788518756906 -14.353442091238744
-4.900818306323287 -15.460443635063148 -14.322334881090523
-4.954819658930843 -15.428991261167056 -14.290788108290743
-5.008852184850653 -15.398219469608842 -14.258048113147966
-5.063047118494881 -15.367649226905117 -14.224545243112948
-5.11714133906737 -15.336464540461746 -14.19071673459154
-5.171374195082418 -15.304207082142122 -14.15712168392917
-5.225544499195733 -15.27326428437796 -14.122099844263884
-5.279607878321254 -15.24206628206021 -14.086582482139576
-5.3407917189572185 -15.205684387433585 -14.046439617885186
-5.390579635146011 -15.173371146865207 -14.014778900548098
-5.441207994855747 -15.139428910178198 -13.982690328854005
-5.494805215508492 -15.105654944655369 -13.946864663440074
-5.564915512873984 -15.061561678712653 -13.899172442192274
-5.636497225641703 -15.016075630495605 -13.849643849691859
-5.689604371849596 -14.983350340333418 -13.81164626810367
-5.741954484025403 -14.952754237704955 -13.772396208638781
-5.794000339222098 -14.922059925548062 -13.733006079909142
-5.841915215342247 -14.89309204141892 -13.696446543567765
-5.896868429974676 -14.858915620157008 -13.654494317596885
-5.947192898057393 -14.826999595586072 -13.615635572710096
-5.998022581770382 -14.795390510258583 -13.575518210140764
-6.047866091790953 -14.764582400402656 -13.535416517990532
-6.096849461985659 -14.734155909570317 -13.49474147760143
-6.145609225047345 -14.705481191155583 -13.453332041939545
-6.193402320561299 -14.676800525902726 -13.412249163791381
-6.247677851709032 -14.643362239946425 -13.364870007731968
-6.287099191238511 -14.61948900203078 -13.328683061480314
-6.332827568914645 -14.591994801542414 -13.286520251187493
-6.377522267007951 -14.565957404685077 -13.243397416244779
-6.421327198022361 -14.54088213045231 -13.200092642400671
-6.464344207917769 -14.51599165259366 -13.156785249817494
-6.511933762712584 -14.488169819589311 -13.107707674788992
-6.547730538777252 -14.466397193510117 -13.070609337408778
-6.5879193343404605 -14.441332516570734 -13.027990894107784
-6.630827928089186 -14.416002868697872 -12.980375177643502
-6.682094646215878 -14.386844734224182 -12.92023998449312
-6.722775852848127 -14.363298183622812 -12.871214485921755
-6.7641694784421365 -14.337918471490822 -12.821118904904038
-6.806033731349217 -14.310500938916702 -12.77079308945631
-6.84730450423571 -14.283013017105835 -12.720220871552984
-6.888020829085725 -14.25634971871492 -12.668634126065507
-6.928198660213646 -14.229614640474447 -12.616382566617212
-6.980151429531908 -14.193570478433204 -12.547551469509632
-7.033754795628173 -14.156477339945909 -12.475642925598102
-7.072377048209578 -14.129789223722238 -12.421631909454172
-7.109876384989734 -14.105627780550988 -12.365727703901918
-7.147030415172212 -14.08125612789169 -12.309641980104661
-7.183804290436637 -14.055510376302975 -12.253808285392447
-7.220228585385303 -14.029594312563155 -12.197814262853912
-7.259672421918058 -14.001148476273567 -12.135647809667176
-7.291097681570385 -13.97880040384876 -12.084308142855805
-7.318505304802633 -13.959151993589492 -12.039029799553004
-7.358607727010444 -13.93295291501689 -11.967255806650227
-7.391336379292612 -13.910432321230763 -11.908226522270041
-7.424040381257637 -13.885482727728943 -11.850307603042298
-7.448156138679156 -13.866997766968721 -11.807106239898719
-7.485328024676953 -13.837224866487135 -11.739936128173385
-7.518905854338147 -13.809235659610254 -11.676874721888518
-7.5488229305023005 -13.785459350384945 -11.618272561133145
-7.578401260391605 -13.761666609674794 -11.558505507895374
-7.6067794655488505 -13.738075167041098 -11.500483677842256
-7.63514939217176 -13.71316375623873 -11.442497339105794
-7.662628306217927 -13.68804800828825 -11.384729845917363
-7.690730910265424 -13.660960695442403 -11.32760857965683
-7.717245934587336 -13.632016626674748 -11.272153701320594
-7.743310015228776 -13.603612130178023 -11.216620935100059
-7.768169091132567 -13.578452124150873 -11.159154434863948
-7.791457267421734 -13.555059384766146 -11.101329664197547
-7.814310914247473 -13.531681925177915 -11.043856317103904
-7.836218543836212 -13.50813819065849 -10.986766020761795
-7.857272901714509 -13.484589965324522 -10.929936226844706
-7.877867350784221 -13.461544120884108 -10.873442525150976
-7.896971658092864 -13.438433696660402 -10.817239683430062
-7.916448464074769 -13.414840983917584 -10.760242785913997
-7.933859686454735 -13.392130718356407 -10.706494037529147
-7.950570504546983 -13.369476879096807 -10.651611405260848
-7.966395726012642 -13.346865579237525 -10.59716357404274
-7.981833035093835 -13.323923011016003 -10.543627242895289
-7.99950349854843 -13.295412887445957 -10.47823049439105
-8.013027617254554 -13.272865663026593 -10.426235300753637
-8.027993018086384 -13.244633272339206 -10.357016150401735
-8.038288473030306 -13.223842298793565 -10.305349639430402
-8.049849061582158 -13.199816572738092 -10.23620691069573
-8.060256638934586 -13.175321011539063 -10.167737105930723
-8.071277100105362 -13.143153813512667 -10.097983652664285
-8.079057465013088 -13.118088469034028 -10.035994856287951
-8.085358661609787 -13.092931184795384 -9.953891239821365
-8.0888211761524 -13.073500175266007 -9.900896251430812
-8.09264234656229 -13.048573773877827 -9.834983985149389
-8.096213296856112 -13.020033392326205 -9.771155008599496
-8.097013446327216 -12.995752802223743 -9.706059942242936
-8.0960762762993 -12.974649690870631 -9.637849821894124
-8.092343448646584 -12.959042798976508 -9.572194190263602
-8.088786289137758 -12.940445286613906 -9.506308711473237
-8.082486213597406 -12.923393329447308 -9.439771330353933
-8.076384171286858 -12.902408969090315 -9.375521229282652
-8.068296422162451 -12.883993633031492 -9.310714551809752
-8.058888381699052 -12.86737707258469 -9.245529147613306
-8.049072309249565 -12.84608412503025 -9.184333357732408
-8.037418254626559 -12.820345539987699 -9.11900396395979
-8.025060475065722 -12.801053701124543 -9.059295299613845
-8.012250900899634 -12.782280169749233 -8.997561241215303
-7.9951235366368785 -12.76169521166064 -8.937021975555961
-7.976668179007378 -12.735596808306289 -8.868551304060327
-7.959410877553697 -12.710866176979403 -8.809267712950918
-7.940945860393752 -12.6804395662752 -8.75278044326055
-7.916487989526111 -12.642259404019747 -8.684331822830318
-7.899079704059599 -12.623594720465503 -8.6387993156506
-7.875915090960298 -12.599762781911815 -8.580465462211922
-7.850954049861709 -12.576970263571893 -8.522144472973784
-7.824697905647982 -12.556476810769757 -8.463867255876531
-7.802653915750234 -12.538568338973144 -8.416865663851
-7.768081338107233 -12.513457503468638 -8.346986566208857
-7.742337052011484 -12.494019367730298 -8.2986009283907
-7.71340607564356 -12.471739523768097 -8.245884336333974
-7.66734044808336 -12.447630147253056 -8.16474955374771
-7.630938338359078 -12.435075269383711 -8.101834733359397
-7.60281383928881 -12.42494394023739 -8.055128568806603
-7.565374757257008 -12.406925385672242 -7.9979214154141305
-7.530927808313251 -12.38297579855091 -7.94989526102743
-7.496708618349441 -12.360878191033992 -7.903891903314931
-7.461335702420708 -12.333978257374445 -7.859346802615684
-7.422494004736086 -12.30419413179885 -7.812886337981602
-7.378784376401251 -12.272303953296289 -7.762099615638719
-7.345813216544537 -12.2439008253211 -7.726900337502866
-7.3046199945000705 -12.20583354200148 -7.685128176684222
-7.256131422849235 -12.165393129738778 -7.63674347064373
-7.217913101865511 -12.130189338189664 -7.601080495388795
-7.163174271208987 -12.080208380119766 -7.5520779429846945
-7.125982702182595 -12.0516713204098 -7.517763743557326
-7.069010363969419 -12.01177253249065 -7.4653126595503005
-7.0292961277443595 -11.98084295967517 -7.43217450298845
-6.995967461243291 -11.955541215492207 -7.404301120253711
-6.942368468179875 -11.91373702947992 -7.360639194174898
-6.873540667794844 -11.85570025257992 -7.308340173495432
-6.80885242311456 -11.806213013539619 -7.260214882626188
-6.739721650956497 -11.77216240072396 -7.2033684878014075
-6.694968570887594 -11.76659295035576 -7.159933677301277
-6.625009177156219 -11.755639857462992 -7.098938620708917
-6.5545507334686395 -11.742223097582281 -7.037910261820783
-6.506277178368766 -11.744502469557192 -6.993480451585503
-6.45164366344742 -11.74485783457108 -6.944389737141942
-6.377107886137468 -11.751840557089107 -6.875496338155636
-6.322954056436869 -11.76205633763145 -6.826975234143325
-6.28682710708005 -11.774466237346122 -6.792375332464988
-6.250039750576111 -11.78810013669608 -6.758526224898449
-6.212359582091992 -11.805732771300827 -6.72114521495183
-6.166758048649266 -11.828437817964605 -6.675702825268542
-6.107873039456766 -11.864534726960272 -6.617446352231425
-6.060009263910251 -11.913570090348413 -6.56332630502464
-5.984198224848733 -11.950099036701058 -6.4945496070474
-5.9048948506963015 -11.97898464566086 -6.428425553865774
-5.846173953996011 -12.005590623947192 -6.37861276681196
-5.778444331602245 -12.040240580045207 -6.321794008200413
-5.714246605367393 -12.045443924519574 -6.280337730286975
-5.652819422090314 -12.046522184416908 -6.241381130968888
-5.584261104679655 -12.04918566764651 -6.199585876677739
-5.518991882757781 -12.059138321195285 -6.159214975555692
-5.4591425701689875 -12.06635087114598 -6.123153719359666
-5.388178309724058 -12.0688969730936 -6.086230998491748
-5.31129398276957 -12.068321110465938 -6.048325649626946
-5.256223181238433 -12.054794940947172 -6.026346638190167
-5.165846103835047 -12.039436411177368 -5.989767238993235
-5.0749960922288455 -12.040214741019144 -5.950181055894093
-5.020532484438132 -12.04559050344826 -5.925385159466143
-4.957036621007912 -12.066046464717209 -5.893570647326514
-4.898695344806882 -12.086270675672948 -5.864117501870166
-4.846459629233034 -12.10044848035106 -5.83992740223868
-4.7778279524307194 -12.116444870915283 -5.8096762286649355
-4.722650096559284 -12.126258476494785 -5.787945611360803
-4.645813323694423 -12.155356795467608 -5.7523802979207135
-4.593071155822989 -12.175385162847885 -5.729050836998858
-4.523004712477814 -12.199467107484853 -5.698164973579646
-4.464808136683033 -12.224494356723751 -5.674342268233969
-4.373296105722133 -12.260463719835494 -5.637084263799222
-4.297910407954676 -12.28768708954944 -5.608579052281607
-4.23617143638012 -12.308821808438731 -5.585643856394379
-4.1904595274419805 -12.330262894382225 -5.567683726905335
-4.109933313934215 -12.358747479494655 -5.539827434021243
-4.048937603360873 -12.379591901893004 -5.519570374212905
-3.966861691295474 -12.41369310916923 -5.491614605738024
-3.9013707959646826 -12.44885754117686 -5.4679444056442055
-3.8261515575677505 -12.493560041749108 -5.440477642251041
-3.7392422706719035 -12.54599481063048 -5.409927949573293
-3.662830424168952 -12.597294022672925 -5.382725364675281
-3.605270543699474 -12.654699619313348 -5.357550586219015
-3.531829762820723 -12.711776797036386 -5.331568504490219
-3.482603464797119 -12.739823205476112 -5.317567509808753
-3.41552186065967 -12.781401154481467 -5.297841140206905
-3.356304892626939 -12.815210465274193 -5.282269536314923
-3.2940747167136433 -12.864649059071697 -5.263281322058702
-3.2394461629131577 -12.909772125991516 -5.246420862264619
-3.1880246721877166 -12.945990643785514 -5.232987574828893
-3.132065621340251 -12.985771188344073 -5.21897844902909
-3.0739859308502053 -13.014008694638648 -5.208577758262962
-3.0156122729060097 -13.038566625804616 -5.20015116525048
-2.9577231948827523 -13.062275103096447 -5.192612869328121
-2.9000180201382637 -13.084239366039716 -5.186288166227802
-2.8410618380977883 -13.109058288362645 -5.180303239934932
-2.7921496938725108 -13.127144843713353 -5.176476921574432
-2.716582320863534 -13.147158752677289 -5.173923770090415
-2.6645191221385005 -13.161255510216705 -5.17266523136053
-2.5974376907749743 -13.175060606705424 -5.173143400478715
-2.5213917159732695 -13.176247905776847 -5.176402100403664
-2.4438656195074078 -13.163183700757907 -5.184088650849459
-2.385464245408647 -13.154938290310197 -5.189569032968878
-2.28899101667305 -13.175276762316667 -5.193452544466792
-2.21086024333127 -13.177179017417645 -5.19985767897801
-2.099765616153351 -13.160895141645277 -5.215319056565311
-2.0336192293790223 -13.163273586096384 -5.222789913587661
-1.9626226253087822 -13.175224796060588 -5.229849669204017
-1.9098236518808633 -13.170557509456293 -5.2383984104015076
-1.8609235201485088 -13.164598769008707 -5.247326077208863
-1.8033968816701975 -13.159934546014563 -5.258076588864285
-1.7163347115996732 -13.180533639805342 -5.269509046598097
-1.6327178622683984 -13.202794565642824 -5.282203183825584
-1.5554922329407734 -13.240230210271283 -5.292891196516794
-1.4958247779309168 -13.272803698470296 -5.301747679024644
-1.4377401080047179 -13.309295664568134 -5.310728043750482
-1.383136743598854 -13.355529714220799 -5.319210105232221
-1.32906153977504 -13.401373635253293 -5.328095694061908
-1.2746092829492737 -13.444751491733538 -5.339644582943655
-1.2195111894416435 -13.486678844769594 -5.353054156327306
-1.1667978514965114 -13.532289697134148 -5.366732913780638
-1.1156517803967452 -13.579828423568417 -5.381555766775056
-1.065273375961862 -13.629396596476491 -5.397622716565745
-0.9965358710368171 -13.69765441386686 -5.4220233296582405
-0.948885667902597 -13.75033053022495 -5.441617832347781
-0.8773994557546869 -13.823078842300616 -5.474161058697217
-0.8336250230998608 -13.870732502734686 -5.496300004854643
-0.7897351275750055 -13.91757848696806 -5.5203544851874105
-0.7135155705785814 -13.98754807097942 -5.567457412169123
-0.6591906597254549 -14.053573782047074 -5.604654647642982
-0.6093661654997562 -14.108915815213244 -5.6419145304797045
-0.5693375287796947 -14.14077129638944 -5.673811423353407
-0.5219285352520111 -14.177565000591033 -5.712856861740989
-0.48947375876083754 -14.206140431939529 -5.742464030298645
-0.4484036249782828 -14.243413401459824 -5.781045807518392
-0.39815981808015133 -14.286978189416189 -5.831149440276166
-0.3654406156509 -14.30790181569958 -5.864824690003884
-0.3297027499679386 -14.329180055010402 -5.903133518771101
-0.2956793590248976 -14.357563427600383 -5.94248085395807
-0.253732768442553 -14.389522128998637 -5.992706235603454
-0.222680648345011 -14.420172674253626 -6.032909252260803
-0.19564976002305867 -14.460206394223357 -6.0718903148804255
-0.17197641339986003 -14.50335274870764 -6.107875955822338
-0.14549388281890252 -14.54935780791152 -6.151507646289119
-0.11810459083752312 -14.587848567796899 -6.195188149623331
-0.0934712543592977 -14.614937263818737 -6.233065524350361
-0.06476490926043521 -14.634392846198105 -6.275295176147658
-0.03498740615104445 -14.65151691151964 -6.319049162898074
0.0022610555390127907 -14.667864810178424 -6.372911153157025
0.04397263862199319 -14.698379637477224 -6.44026815667151
0.08533713548990951 -14.73172453767454 -6.508190868152945
0.10632010833449312 -14.755925968972395 -6.547113836471178
0.13422049088704968 -14.789006069141013 -6.600171777298887
0.16427812558630706 -14.82219877695116 -6.65520418142177
0.19570322581375343 -14.848729816825323 -6.712551075759461
0.22750467839201916 -14.874970505773137 -6.770461318332678
0.25199571115553576 -14.897326969047244 -6.817145565805347
0.28710131203829325 -14.934131951313576 -6.8867707079366385
0.31616817048986334 -14.96437352004117 -6.945783693317257
0.34547365305864464 -14.993937181572992 -7.005412017897422
0.37420307094697813 -15.023980090511666 -7.065502441756135
0.40294817993478915 -15.053512436540037 -7.126149428884409
0.43176440527679105 -15.082131515181587 -7.187538146418233
0.46056644125761403 -15.1102653616927 -7.249376479290515
0.4897152142363477 -15.136799887712353 -7.312047805761624
0.5187534777255061 -15.163198676663782 -7.374940588825214
0.545557596519695 -15.19321036632723 -7.437083515821468
0.5817607941158629 -15.231504170691958 -7.520567484959005
0.6203170014641706 -15.266764709146697 -7.608365577947766
0.648998827056825 -15.286798311274458 -7.670453793099047
0.6783563141196023 -15.307923125660059 -7.7354459909546165
0.7070658923021726 -15.32818113156266 -7.799044801833961
0.7365106246570998 -15.348564177257192 -7.865684686363305
0.7655201386426778 -15.368543603933746 -7.930518359726315
0.7928474629325093 -15.390986972125736 -7.994417467327639
0.8169785501444355 -15.418079135961001 -8.056737574155498
0.8404110113097438 -15.445917585575623 -8.118402681341736
0.8623358513197896 -15.475720219942486 -8.1791331294016
0.8849183801536289 -15.502999695916271 -8.240132273797121
0.9075722103729786 -15.529244207897529 -8.30097095398199
0.9296327396173125 -15.555330573165287 -8.361230102950065
0.9415679312093994 -15.567414442693396 -8.392699900020146
0.9531053961721652 -15.579096299759232 -8.423122199419092
0.9745270429490613 -15.60188408267067 -8.481498442066757
0.9966849260928514 -15.625198512203118 -8.540842648974055
1.0174320752704693 -15.649765240258196 -8.599973016387644
1.0434692021633776 -15.68221976585333 -8.674935778986292
1.0668022044097638 -15.711958501891475 -8.743675979068188
1.0929519217370034 -15.746485170719017 -8.822547560900038
1.1234902345408861 -15.7852932044794 -8.91441778566722
1.1415962677485099 -15.807353066684678 -8.970364845632076
1.1595500673757408 -15.828072471296233 -9.022652838402463
1.187451742695877 -15.856897025995613 -9.103708646246291
1.201050472892541 -15.876310152802128 -9.14822139568374
1.2144550603247342 -15.895608470898102 -9.19268799135945
1.2343539931092198 -15.924163711530797 -9.259167624062739
1.2537934794963772 -15.952393099496236 -9.325469924243185
1.272403934668254 -15.980919037539921 -9.391307686709899
1.2904709984096274 -16.009376983669327 -9.45687891708198
1.3063812763923432 -16.04002903883159 -9.521328322527435
1.3211532938887678 -16.071434949080622 -9.585714587641094
1.3363023775045835 -16.10071138563554 -9.649488685015564
1.3517107719633605 -16.129188311083208 -9.713669154955708
1.3656819156464635 -16.158244361635617 -9.777307751234831
1.3778129478665528 -16.188611647486205 -9.840224987897672
1.3896754666827933 -16.218588929984726 -9.902838361077409
1.4002701581929937 -16.249208092611408 -9.96491968789247
1.4080325169503074 -16.281996138301885 -10.025818715352141
1.4157093012374418 -16.313895796052037 -10.086704761584796
1.4250298591723647 -16.350661109503417 -10.160292636852342
1.4301685102070372 -16.374957788785377 -10.208411329654917
1.43639349686014 -16.4053733949124 -10.268981945968283
1.441549789990077 -16.42891262261904 -10.31866956861739
1.4478130399870754 -16.462086195793237 -10.390028186082924
1.4511804805988953 -16.49177733224026 -10.449618608484098
1.4533707293152789 -16.521308269901166 -10.508863144820245
1.4561853843254937 -16.550613390960695 -10.568070939081109
1.456597232946089 -16.578058165646993 -10.627251509045148
1.459474175522859 -16.604541159182716 -10.68666867747224
1.4610545977865739 -16.62926412124045 -10.746205579412559
1.4618620133954736 -16.653673920648526 -10.806195247532482
1.4620813807110147 -16.677948591658854 -10.865553303466898
1.4615850163073367 -16.70194265005024 -10.924706545732926
1.4609372535022342 -16.724551033802342 -10.984080638596671
1.4596200740434089 -16.74707909022285 -11.043196668265688
1.4571080778955428 -16.769195942667398 -11.102103461314263
1.4543221562199515 -16.79110615458714 -11.160968965139364
1.4510776199972737 -16.810660931232714 -11.218458549136118
1.446834560372753 -16.833067716654316 -11.285498210701462
1.4423500057520018 -16.852203239401437 -11.344683632148639
1.4361377695001636 -16.87126092305606 -11.402417324163283
1.4285385355687126 -16.88845913238623 -11.45001265351013
1.4158729289284775 -16.912572648165842 -11.51692966794325
1.3978294672493372 -16.942064790723286 -11.595815129354866
1.3783090939801816 -16.971918880572765 -11.699711941609102
1.3640315594761745 -16.990224328580766 -11.763638814804283
1.3449679838658026 -17.010052571819912 -11.826796871976354
1.320453542910411 -17.033562047687106 -11.901331493445516
1.3049895941684344 -17.047276866696286 -11.955499916315349
1.2847744325309236 -17.06360962285859 -12.019823721167251
1.2606352194918475 -17.08179775368033 -12.084283639404848
1.2367982578892072 -17.097472446988235 -12.14761961589648
1.2123583029293012 -17.11253061015358 -12.214399292618216
1.1856167833737934 -17.128298491032243 -12.279174577713192
1.1559133646427955 -17.14515552676337 -12.343114353627131
1.1313352669455115 -17.158242486879995 -12.395856973840887
1.0939633535011652 -17.17543297801218 -12.481231875693295
1.0693774049123057 -17.186155258814626 -12.534090279903603
1.0378819420060568 -17.1989361553764 -12.602039745399642
0.9963052166069373 -17.214653145689642 -12.687632567428585
0.9568684755285348 -17.228083767529533 -12.767173900094496
0.9127456577287996 -17.239330227056325 -12.859131234646727
0.8682912941796674 -17.25006649339765 -12.946671228166496
0.8356260874494006 -17.258649547052872 -13.006031991281384
0.8100133904693507 -17.264148648152712 -13.051964636938427
0.772221120859288 -17.267373990651457 -13.131858283125903
0.7395473103748507 -17.27176677884875 -13.19369567537645
0.7082550033913919 -17.27295340726259 -13.255403955449914
0.6793828987845898 -17.270664266179455 -13.317690930520156
0.6504347482579327 -17.267673374708426 -13.379572801536865
0.6139566783569466 -17.27165148591055 -13.43701054554464
0.5838458886777751 -17.273360225860618 -13.486477684021866
0.5491270612862262 -17.268787107852482 -13.55278268009197
0.5171557522281103 -17.265630194226564 -13.609616325232402
0.4816641997145821 -17.265936392895743 -13.662631767192966
0.44482881342778713 -17.2669711575543 -13.717642403133105
0.4092599815949254 -17.266599155778174 -13.766822254748329
0.3724119277415774 -17.26677639916961 -13.816047044050617
0.33223744703649993 -17.271895011424856 -13.861973723316696
0.2903726139545042 -17.278705395763158 -13.905561901983098
0.2492042547469855 -17.28454144833738 -13.947798649287671
0.18662120702902651 -17.287826164419055 -14.01542051252524
0.1332222693812639 -17.287870765895438 -14.072528320318996
